# 3D point list with one line of data per point:
#   POINT3D_ID, X, Y, Z, R, G, B, ERROR, TRACK[] as (IMAGE_ID, POINT2D_IDX)
# Number of points: 611
5219 601.232038927589 1647.25080529167 1.4970161671669724 255 255 255 0.01
5220 601.2515886697215 1647.2527648968075 1.5030531053740586 255 255 255 0.01
5221 601.2816504136808 1647.2562163245527 1.5040965989268327 255 255 255 0.01
5222 601.3101225286925 1647.2593769854063 1.5072729654062116 255 255 255 0.01
5223 601.3227040406197 1647.2602400267524 1.5193252937338535 255 255 255 0.01
5224 601.3368740590704 1647.2612718057705 1.531086896724497 255 255 255 0.01
5225 605.2008322235771 1647.8037696543302 -0.08217066418770824 255 255 255 0.01
5226 605.539351106034 1647.84471569848 -0.09261859688038387 255 255 255 0.01
5227 605.9277224443878 1647.8907042542232 -0.10446662155291575 255 255 255 0.01
5228 606.3433403500704 1647.939315391115 -0.10835519887137934 255 255 255 0.01
5229 606.8941383372082 1648.0061744978768 -0.13556221646755118 255 255 255 0.01
5230 607.5277798046968 1648.0814399418277 -0.15950486514285478 255 255 255 0.01
5231 608.2804496870294 1648.1707659574622 -0.18639887784749476 255 255 255 0.01
5232 609.1614306613383 1648.2746795966732 -0.20873544497925245 255 255 255 0.01
5233 610.3311229568282 1648.4599691583817 -0.24940724184485497 255 255 255 0.01
5234 611.771014673256 1648.6368941902128 -0.28883595482778546 255 255 255 0.01
5235 613.7772582287595 1648.8862141195345 -0.3527106346789881 255 255 255 0.01
5236 614.018471976587 1648.8990530942688 -0.07362544531216697 255 255 255 0.01
5237 619.7212031561565 1649.6123913884971 -0.4322324904665491 255 255 255 0.01
5238 600.689406898027 1647.1691681211785 1.8224899530343064 255 255 255 0.01
5239 626.2302504607262 1650.3810761357975 0.006266275787071285 255 255 255 0.01
5240 626.1803096684438 1650.3394231333893 0.6075341819399278 255 255 255 0.01
5241 625.5840030164459 1650.2352660330887 1.2183908763516988 255 255 255 0.01
5242 626.0758273864276 1650.260554496512 1.8038288156638924 255 255 255 0.01
5243 626.1054468488392 1650.2290469420311 2.3971910749451055 255 255 255 0.01
5244 626.1311567112716 1650.1970254582238 2.992184291054452 255 255 255 0.01
5245 626.1423622930278 1650.1674545807234 3.5931563169699836 255 255 255 0.01
5246 626.225383956862 1650.141934203768 4.198371056538969 255 255 255 0.01
5247 626.3751263745521 1650.1237453412564 4.817651257427888 255 255 255 0.01
5248 626.6466135690735 1650.123194713723 5.469070796848449 255 255 255 0.01
5249 601.2284781834146 1647.248517414683 1.4640141757766216 255 255 255 0.01
5250 601.1898424432924 1647.241909405343 1.5065114261078087 255 255 255 0.01
5251 601.2310281626646 1647.2470301036242 1.4978916002772815 255 255 255 0.01
5252 601.2541216886277 1647.2493849018385 1.501922602812731 255 255 255 0.01
5253 601.2823496816021 1647.2525477343472 1.5039432317876 255 255 255 0.01
5254 601.3126533387765 1647.2557528468421 1.5062139880558156 255 255 255 0.01
5255 601.32523374299 1647.2564938171156 1.5183000783998981 255 255 255 0.01
5256 601.3612816489816 1647.2604404593765 1.520332415576761 255 255 255 0.01
5257 605.1952084741536 1647.7758653414721 -0.07947337399229437 255 255 255 0.01
5258 605.5431203894012 1647.816055041331 -0.09386591348036233 255 255 255 0.01
5259 605.9205928957344 1647.8582969948218 -0.10169985116589153 255 255 255 0.01
5260 606.3513448132377 1647.9065269214661 -0.11108733246089941 255 255 255 0.01
5261 606.889280771556 1647.9684973916171 -0.13416261766037652 255 255 255 0.01
5262 607.5194669568907 1648.0396432720418 -0.157382575535699 255 255 255 0.01
5263 608.2705199889776 1648.125688378435 -0.18421198753131662 255 255 255 0.01
5264 609.1596446064833 1648.22568241403 -0.20897462580818527 255 255 255 0.01
5265 610.3249677143187 1648.4002689837957 -0.2490262809707886 255 255 255 0.01
5266 611.7518444047428 1648.568888594334 -0.2864601522872574 255 255 255 0.01
5267 613.779225535415 1648.8068477073286 -0.3548434344197551 255 255 255 0.01
5268 614.1384837260207 1648.8329011611086 -0.09279242318935421 255 255 255 0.01
5269 619.5829466475012 1649.4835093371096 -0.41905495304357565 255 255 255 0.01
5270 626.1320231350571 1650.2504777538106 -0.5949001848347413 255 255 255 0.01
5271 626.4304157075012 1650.2553594773954 -0.0131964778187319 255 255 255 0.01
5272 626.2359051758245 1650.1967639126512 0.5992859004810778 255 255 255 0.01
5273 625.6079412863481 1650.0880704954816 1.2117713869420794 255 255 255 0.01
5274 626.1055241138027 1650.1157490070993 1.7974197440731121 255 255 255 0.01
5275 626.1230475663876 1650.082885759102 2.390796999824377 255 255 255 0.01
5276 626.1621178716034 1650.0569080491105 2.98662225135808 255 255 255 0.01
5277 626.1737720918114 1650.0229994702793 3.5877342520964692 255 255 255 0.01
5278 626.2587451862321 1649.997339020275 4.1934457943131855 255 255 255 0.01
5279 626.4059565596423 1649.982713083596 4.813032542648022 255 255 255 0.01
5280 626.6898550754952 1649.9775946423938 5.466179845326811 255 255 255 0.01
5281 601.2258805829579 1647.2447566227886 1.4660789607830569 255 255 255 0.01
5282 601.19714760672 1647.2397679578237 1.5021432026081265 255 255 255 0.01
5283 601.2267194382852 1647.2430406545132 1.5008196746636155 255 255 255 0.01
5284 601.2495677153221 1647.2452755704717 1.504723960662085 255 255 255 0.01
5285 601.2848827022124 1647.2491677390574 1.5028554026352285 255 255 255 0.01
5286 601.3116409228838 1647.2517945668706 1.5069579328015514 255 255 255 0.01
5287 601.3332646817419 1647.2536133879498 1.514712916293336 255 255 255 0.01
5288 601.4036549485348 1647.2618879694753 1.501423338710448 255 255 255 0.01
5289 605.1948479815079 1647.7495003079766 -0.07904610491349073 255 255 255 0.01
5290 605.5448199849187 1647.7880234510849 -0.09433847809684215 255 255 255 0.01
5291 605.9205624348768 1647.827900232091 -0.10162172486438248 255 255 255 0.01
5292 606.3459149730421 1647.8730663234126 -0.10927456073241726 255 255 255 0.01
5293 606.8898120335791 1647.9327242673755 -0.1344945775435169 255 255 255 0.01
5294 607.5145883205412 1647.9996468083325 -0.1562965598226551 255 255 255 0.01
5295 608.2660917023085 1648.0814756706743 -0.1835314768774592 255 255 255 0.01
5296 609.1479606128134 1648.17561509916 -0.20687970888995277 255 255 255 0.01
5297 610.3101683022469 1648.3431494469005 -0.24680377775487639 255 255 255 0.01
5298 611.7399040540239 1648.5039914776996 -0.2854567935141912 255 255 255 0.01
5299 613.7781816987628 1648.7318413185517 -0.356423746321628 255 255 255 0.01
5300 614.2518061246634 1648.7694345875702 -0.11094606733875167 255 255 255 0.01
5301 619.5382227456843 1649.3706280627252 -0.4168786593790359 255 255 255 0.01
5302 626.0913619503536 1650.1010597993666 -0.5956519648632215 255 255 255 0.01
5303 626.2390692640237 1650.0872827436629 -0.004589444203039861 255 255 255 0.01
5304 600.6901354091926 1647.1687342774633 1.822490800410865 255 255 255 0.01
5305 625.6199828862401 1649.948307436832 1.2058142094943731 255 255 255 0.01
5306 626.1436930472119 1649.976236658034 1.7912252467841316 255 255 255 0.01
5307 626.173191705156 1649.9447303848924 2.3853817309834318 255 255 255 0.01
5308 626.2043185176921 1649.9177873502024 2.9816334245973044 255 255 255 0.01
5309 626.2157292177624 1649.8839423675554 3.583358864665278 255 255 255 0.01
5310 626.2908035954042 1649.8569667818801 4.188744998548987 255 255 255 0.01
5311 626.4657435798706 1649.8444717463021 4.81188356461339 255 255 255 0.01
5312 626.7436418970568 1649.8373315934064 5.465165058665309 255 255 255 0.01
5313 601.224992443094 1647.2410413717944 1.467037461230385 255 255 255 0.01
5314 601.2079948814087 1647.237838589115 1.4956418555797124 255 255 255 0.01
5315 601.2308426166055 1647.2400124664039 1.4986348954153823 255 255 255 0.01
5316 601.2555224297092 1647.2422918432849 1.5016328252965354 255 255 255 0.01
5317 601.2855797568118 1647.2452550260439 1.502694306631389 255 255 255 0.01
5318 601.3141700762781 1647.2479873430245 1.5058952791175724 255 255 255 0.01
5319 601.3357932721002 1647.2497451147585 1.5136866139392469 255 255 255 0.01
5320 601.4280542453328 1647.2601411181283 1.4906310927669897 255 255 255 0.01
5321 605.1981393123481 1647.7220036707836 -0.08022506830498832 255 255 255 0.01
5322 605.5409963896645 1647.7566844877356 -0.09272468334392903 255 255 255 0.01
5323 605.9244172687622 1647.7952103062391 -0.10302595907439427 255 255 255 0.01
5324 606.3480440460401 1647.8384996839309 -0.1101047479804862 255 255 255 0.01
5325 606.8848133736824 1647.8929732046702 -0.13316137883768553 255 255 255 0.01
5326 607.5116435292875 1647.9574964257845 -0.15585297170523438 255 255 255 0.01
5327 608.263705471741 1648.033583031473 -0.18351619536525776 255 255 255 0.01
5328 609.1422253732725 1648.1218927954599 -0.20634759063853947 255 255 255 0.01
5329 610.2974171427675 1648.2830816696166 -0.24512035286652356 255 255 255 0.01
5330 611.7220656286612 1648.4348140756833 -0.28347715663657436 255 255 255 0.01
5331 613.7714743161864 1648.6516377616106 -0.3571980684945859 255 255 255 0.01
5332 614.388781501209 1648.7026407499143 -0.13270761153611743 255 255 255 0.01
5333 619.5153179122136 1649.2541311280295 -0.41751393224128464 255 255 255 0.01
5334 626.1218678180342 1649.9511186904135 -0.6035175218630675 255 255 255 0.01
5335 626.1830127218823 1649.922805733661 -0.006090480137956877 255 255 255 0.01
5336 626.2075423225067 1649.8951884357896 0.589478055003227 255 255 255 0.01
5337 625.6263254780963 1649.7991957438048 1.1996705322823633 255 255 255 0.01
5338 626.1945658105647 1649.8242820291316 1.7844671128701237 255 255 255 0.01
5339 626.2175074643482 1649.7965577737332 2.3794758852187545 255 255 255 0.01
5340 626.2648445897819 1649.7667827252733 2.976904321477816 255 255 255 0.01
5341 626.2702689054428 1649.7324420194498 3.579254978914382 255 255 255 0.01
5342 626.3705503875545 1649.7120756648753 4.188074932723063 255 255 255 0.01
5343 626.5221051190344 1649.6919171906509 4.809717627430924 255 255 255 0.01
5344 626.8119624884249 1649.6843032488787 5.465514445089769 255 255 255 0.01
5345 601.2222727793614 1647.237281691323 1.4691027255318243 255 255 255 0.01
5346 601.2052757679816 1647.2341399230434 1.497633290502223 255 255 255 0.01
5347 601.2331331599436 1647.236817779068 1.4974752834340026 255 255 255 0.01
5348 601.2579339381252 1647.2389739929645 1.500507660891704 255 255 255 0.01
5349 601.2828567754725 1647.2411291233377 1.5044255507344975 255 255 255 0.01
5350 601.3131565633817 1647.243906996962 1.506637419269622 255 255 255 0.01
5351 601.3346565857835 1647.2455438091895 1.514381918852963 255 255 255 0.01
5352 601.4379111891617 1647.2566948270203 1.486365901376414 255 255 255 0.01
5353 605.1920290655326 1647.6942866213344 -0.07749538300099568 255 255 255 0.01
5354 605.5404888950077 1647.7275742702918 -0.09248502380462043 255 255 255 0.01
5355 605.9241340457871 1647.7639006215618 -0.10296779541455159 255 255 255 0.01
5356 606.3460277516728 1647.8045810905146 -0.10959518457207951 255 255 255 0.01
5357 606.8907121269747 1647.856785223629 -0.1353117316477861 255 255 255 0.01
5358 607.5102991000616 1647.916857606859 -0.15589611976832995 255 255 255 0.01
5359 608.253035060758 1647.9875957264903 -0.18133080834944604 255 255 255 0.01
5360 609.1280877484808 1648.0704439985645 -0.20380852340723576 255 255 255 0.01
5361 610.2997141496234 1648.2266011335735 -0.24668692372229462 255 255 255 0.01
5362 611.7192774645863 1648.3694678275874 -0.28436746253389034 255 255 255 0.01
5363 613.7561141431364 1648.5730380586886 -0.35653435108239107 255 255 255 0.01
5364 614.5056016825841 1648.6345646042414 -0.15159379227042513 255 255 255 0.01
5365 619.4537119228168 1649.1373127854704 -0.4134852215271949 255 255 255 0.01
5366 626.2086202482229 1649.811350937617 -0.6166453517787356 255 255 255 0.01
5367 619.079714796747 1649.0478757842209 0.4996733558782396 255 255 255 0.01
5368 619.0080373304711 1649.0189902894977 0.9333704939543949 255 255 255 0.01
5369 626.2480343378822 1649.715871805415 1.178212686266766 255 255 255 0.01
5370 626.2515055049083 1649.6815484508782 1.778103823905041 255 255 255 0.01
5371 626.2644280407636 1649.6528777373246 2.373875044435467 255 255 255 0.01
5372 626.3078538655209 1649.622527471527 2.971865240074508 255 255 255 0.01
5373 626.3251300693146 1649.589422039994 3.57569265361123 255 255 255 0.01
5374 626.4192989339266 1649.568074275971 4.1848760424838005 255 255 255 0.01
5375 626.5886845824458 1649.5487919789148 4.809329703357303 255 255 255 0.01
5376 626.8902569942084 1649.5407675301528 5.467918210075555 255 255 255 0.01
5377 601.2229747998269 1647.2339182508592 1.4689679489566123 255 255 255 0.01
5378 601.2109896684027 1647.2315246107003 1.494316972348051 255 255 255 0.01
5379 601.2338351878681 1647.2334543513703 1.4973383866997365 255 255 255 0.01
5380 601.2569237424273 1647.2352598499174 1.5013468616411958 255 255 255 0.01
5381 601.2888103876188 1647.2380233339888 1.501452180632446 255 255 255 0.01
5382 601.3192311348758 1647.2406780442145 1.5037801709585983 255 255 255 0.01
5383 601.3408515791601 1647.2421306524361 1.511644353629001 255 255 255 0.01
5384 604.8934294449849 1647.6399174476792 -0.06804486368762785 255 255 255 0.01
5385 605.1948400561921 1647.6676488745181 -0.07862239217333689 255 255 255 0.01
5386 605.5416932968585 1647.6987535827736 -0.09296626542050257 255 255 255 0.01
5387 605.9217745475288 1647.7324875920385 -0.10221182317738342 255 255 255 0.01
5388 606.3532989747131 1647.7716771511282 -0.11229075542039268 255 255 255 0.01
5389 606.8812143857414 1647.8189669205462 -0.1326577714546211 255 255 255 0.01
5390 607.5105442222816 1647.8764484118183 -0.15648004170464858 255 255 255 0.01
5391 608.2401666368168 1647.9415069072124 -0.17861560834270485 255 255 255 0.01
5392 609.129224749734 1648.0206880078717 -0.20496632450990138 255 255 255 0.01
5393 610.2861264282424 1648.1684940246676 -0.2448829602947833 255 255 255 0.01
5394 611.7063490049868 1648.3032370563883 -0.2833665500431324 255 255 255 0.01
5395 613.7441781051607 1648.495079261502 -0.3564931562862199 255 255 255 0.01
5396 614.6280321191944 1648.5658272229612 -0.17135699363530055 255 255 255 0.01
5397 618.8973874008855 1648.9723559457436 -0.3504203847114158 255 255 255 0.01
5398 618.8816441656577 1648.9461386061862 0.08023226170031195 255 255 255 0.01
5399 618.8678571477566 1648.9200869126057 0.5111925226028644 255 255 255 0.01
5400 619.0404265459298 1648.9152992791494 0.927803332755315 255 255 255 0.01
5401 626.3202400184047 1649.5739778400125 1.1704749120215951 255 255 255 0.01
5402 626.2937788083515 1649.5369339640624 1.7717888642562682 255 255 255 0.01
5403 626.3345568656787 1649.510880278457 2.3688090743632957 255 255 255 0.01
5404 626.3838468528595 1649.4809644801542 2.9683621980034416 255 255 255 0.01
5405 626.3950150572313 1649.4473049121998 3.5732356644750203 255 255 255 0.01
5406 626.4911335772749 1649.4256950376164 4.1838807069237465 255 255 255 0.01
5407 626.6722412201495 1649.4065510297664 4.811006705721363 255 255 255 0.01
5408 626.9835716857979 1649.397705749912 5.472524865117103 255 255 255 0.01
5409 601.2153669944882 1647.2295924670439 1.474342807882548 255 255 255 0.01
5410 601.2098590622976 1647.227994676981 1.4952487821045994 255 255 255 0.01
5411 601.2327040393671 1647.2298633914454 1.4982252618386085 255 255 255 0.01
5412 601.2557909248426 1647.231485773342 1.502187834373463 255 255 255 0.01
5413 601.2912202342137 1647.2345223734842 1.500361025723433 255 255 255 0.01
5414 601.3145517923141 1647.2362036234417 1.5063257201634583 255 255 255 0.01
5415 601.3541340963803 1647.2395078655363 1.5054685773287875 255 255 255 0.01
5416 604.9050537951318 1647.6159465672627 -0.07317482561993871 255 255 255 0.01
5417 605.1976504317822 1647.6409499286053 -0.07974192981483097 255 255 255 0.01
5418 605.5334884222798 1647.6689194386454 -0.08978208343340555 255 255 255 0.01
5419 605.9229584945399 1647.7014085610806 -0.10281990053584167 255 255 255 0.01
5420 606.3416310202308 1647.7368690982053 -0.10853987417531874 255 255 255 0.01
5421 606.8885791474861 1647.782949135892 -0.13538561222282275 255 255 255 0.01
5422 607.4914845952392 1647.834199565653 -0.1514997733528871 255 255 255 0.01
5423 608.2463606022864 1647.8975037356179 -0.18098359541907527 255 255 255 0.01
5424 609.1260868247973 1647.9706655439195 -0.2051772793145452 255 255 255 0.01
5425 610.2798724189196 1648.1113585394153 -0.24473200448080323 255 255 255 0.01
5426 611.693055062066 1648.2371311987722 -0.28233835322821754 255 255 255 0.01
5427 613.7317559941577 1648.4173072362237 -0.35642127871992946 255 255 255 0.01
5428 614.7619349080178 1648.4968028838111 -0.19284759672394491 255 255 255 0.01
5429 619.4293665974806 1648.9155394543384 -0.4172826419633937 255 255 255 0.01
5430 623.699219306667 1649.2826982128856 -0.3856326016338705 255 255 255 0.01
5431 618.917478386832 1648.8186209420646 0.5038773637152791 255 255 255 0.01
5432 619.0164902030816 1648.8062576438822 0.9249837667760409 255 255 255 0.01
5433 626.2102805842853 1649.4153582455697 1.1674028651553576 255 255 255 0.01
5434 626.3551073772276 1649.3936728989254 1.7654575643421837 255 255 255 0.01
5435 626.4098130997779 1649.3687137428224 2.3638830650771694 255 255 255 0.01
5436 626.460933220448 1649.338782708619 2.964959308289773 255 255 255 0.01
5437 626.495923435137 1649.3071041635972 3.572951219702648 255 255 255 0.01
5438 626.5839760419562 1649.2843466505149 4.1848916509942296 255 255 255 0.01
5439 626.7628749710599 1649.264123682681 4.8136020506571695 255 255 255 0.01
5440 627.1036313775417 1649.2558668182157 5.480966283454516 255 255 255 0.01
5441 601.2159475102804 1647.2262911801467 1.47421184649959 255 255 255 0.01
5442 601.202130835441 1647.2238530747231 1.500434078859512 255 255 255 0.01
5443 601.233405506382 1647.2264389134095 1.4980904938648498 255 255 255 0.01
5444 601.2651673370589 1647.228898338294 1.4971328418215972 255 255 255 0.01
5445 601.2900857598812 1647.2305651856 1.5011545726149635 255 255 255 0.01
5446 601.3205026546347 1647.2327926730668 1.5034632427340702 255 255 255 0.01
5447 601.3798777715855 1647.2379319426632 1.4932706318691578 255 255 255 0.01
5448 604.8856421974891 1647.5887774086414 -0.06440994804955968 255 255 255 0.01
5449 605.1983768679039 1647.613293207801 -0.08011301198357446 255 255 255 0.01
5450 605.5436127793176 1647.6410557011866 -0.09390200709868823 255 255 255 0.01
5451 605.9221878405515 1647.6702254539389 -0.10273019640962322 255 255 255 0.01
5452 606.3466940805126 1647.7027643398628 -0.11061351390443264 255 255 255 0.01
5453 606.8766397521075 1647.7450916254197 -0.13210195602649222 255 255 255 0.01
5454 607.4913538462429 1647.79275627909 -0.1521028735070744 255 255 255 0.01
5455 608.2408130527409 1647.8510432513629 -0.1803304319108716 255 255 255 0.01
5456 609.1131611603126 1647.9182903256096 -0.20310267009624372 255 255 255 0.01
5457 610.2772843027158 1648.054677777922 -0.24539973915471247 255 255 255 0.01
5458 611.6755924982648 1648.1689881726088 -0.2806140233219452 255 255 255 0.01
5459 613.7228775881001 1648.3400527963545 -0.35697524512788137 255 255 255 0.01
5460 614.893503120006 1648.4260900696024 -0.2140940994902336 255 255 255 0.01
5461 619.4114853132239 1648.8011942552819 -0.4186642620330736 255 255 255 0.01
5462 626.372804653636 1649.3787566467663 -0.6472156359780463 255 255 255 0.01
5463 619.0241484613973 1648.7214602548934 0.4923902949250931 255 255 255 0.01
5464 626.45732953779 1649.3171612675187 0.5547798908588615 255 255 255 0.01
5465 625.9918503677981 1649.2491752376166 1.1672193723320736 255 255 255 0.01
5466 626.4754365102056 1649.254640071162 1.7589978242361213 255 255 255 0.01
5467 626.5045660743757 1649.2228314762956 2.3591963653898116 255 255 255 0.01
5468 626.5556842985943 1649.1926557179304 2.962169710288061 255 255 255 0.01
5469 626.5880287666994 1649.165213372772 3.5721289892889687 255 255 255 0.01
5470 626.6803113212176 1649.1378390502719 4.186079437214197 255 255 255 0.01
5471 626.8808227875595 1649.1182152376323 4.8191870917110755 255 255 255 0.01
5472 627.2329641559944 1649.1134554799742 5.490764824309737 255 255 255 0.01
5473 601.2381551801711 1647.2251744738726 1.4597443563856725 255 255 255 0.01
5474 601.2111421564065 1647.2213909852906 1.4949872458586837 255 255 255 0.01
5475 601.2305626636617 1647.2225582574606 1.5000001634172122 255 255 255 0.01
5476 601.2657445363471 1647.225230839456 1.496987120522867 255 255 255 0.01
5477 601.2889512905695 1647.2266080141942 1.501945700984979 255 255 255 0.01
5478 601.3193670803303 1647.2287134353032 1.5042104010694506 255 255 255 0.01
5479 601.4092834220567 1647.236322903017 1.4793359325220892 255 255 255 0.01
5480 604.8861417216791 1647.5630149117926 -0.06465259548582059 255 255 255 0.01
5481 605.1934906424375 1647.58593165234 -0.07811644738177392 255 255 255 0.01
5482 605.5388225332675 1647.6108241994036 -0.09219542144342219 255 255 255 0.01
5483 605.9155446779097 1647.6375694473793 -0.10060295641371186 255 255 255 0.01
5484 606.3513996615806 1647.669639236584 -0.11263634406952483 255 255 255 0.01
5485 606.8722669187677 1647.707043803733 -0.13124914485747907 255 255 255 0.01
5486 607.4813391225562 1647.7517686155652 -0.14986187369019288 255 255 255 0.01
5487 608.2310031373783 1647.8057200138628 -0.1785811247472049 255 255 255 0.01
5488 609.1095362945337 1647.868455050855 -0.20327547582948613 255 255 255 0.01
5489 610.2666191889627 1647.9957510950087 -0.2444360834688406 255 255 255 0.01
5490 611.673176318693 1648.104310264032 -0.2817791385221784 255 255 255 0.01
5491 613.7020085726607 1648.2596717328752 -0.3556208818760056 255 255 255 0.01
5492 615.0228362851221 1648.3512476402432 -0.23519911055902254 255 255 255 0.01
5493 619.4184376413501 1648.6925452185717 -0.422948116678981 255 255 255 0.01
5494 626.4547268229757 1649.2312198471402 -0.6602903254601769 255 255 255 0.01
5495 600.6922005949051 1647.1676169146392 1.822493331986819 255 255 255 0.01
5496 626.6046443153945 1649.178920977573 0.5418935169808694 255 255 255 0.01
5497 625.864411606626 1649.0882731899321 1.1646102106833198 255 255 255 0.01
5498 626.5714042443274 1649.1079522936138 1.7524055934768248 255 255 255 0.01
5499 626.6061933529996 1649.080976470231 2.3548643411177976 255 255 255 0.01
5500 626.6711129051556 1649.0515909554629 2.9605324351007853 255 255 255 0.01
5501 626.6976729669246 1649.0190743633634 3.5723295421835717 255 255 255 0.01
5502 626.8013527687274 1648.996601731924 4.189800710716633 255 255 255 0.01
5503 626.9996550960911 1648.9757163563652 4.825181315712434 255 255 255 0.01
5504 627.3974212178103 1648.9674322571238 5.505266661063507 255 255 255 0.01
5505 601.2337243773411 1647.221186125525 1.4629189774489528 255 255 255 0.01
5506 601.223452571811 1647.2192652623585 1.487413605442344 255 255 255 0.01
5507 601.241406084416 1647.2202016686879 1.4937229354366335 255 255 255 0.01
5508 601.2923465593219 1647.2240743737414 1.4820893230077896 255 255 255 0.01
5509 601.3282580616958 1647.2264352216218 1.4810490641850598 255 255 255 0.01
5510 601.3448660758078 1647.2270786938168 1.491428207275821 255 255 255 0.01
5511 600.6925651229587 1647.1674305110203 1.822493696516776 255 255 255 0.01
5512 604.870154002842 1647.536486184206 -0.0574930790672743 255 255 255 0.01
5513 605.1901937375055 1647.5588609257404 -0.07688404953328232 255 255 255 0.01
5514 605.5394171490424 1647.5820702149056 -0.09263927117587611 255 255 255 0.01
5515 605.9162412124789 1647.6066169809174 -0.10117913639857501 255 255 255 0.01
5516 606.3333816471762 1647.634583487388 -0.10690708197395304 255 255 255 0.01
5517 606.8676603377107 1647.670096659232 -0.1303365514221988 255 255 255 0.01
5518 607.4864735956708 1647.7121086575664 -0.1520553496814656 255 255 255 0.01
5519 608.2268140666657 1647.7609561988522 -0.17834816560085365 255 255 255 0.01
5520 609.1035913789686 1647.818519278205 -0.20296344484631845 255 255 255 0.01
5521 610.2575582761436 1647.9387629366597 -0.24379911066237492 255 255 255 0.01
5522 611.6606221630587 1648.038991313337 -0.2810446187418574 255 255 255 0.01
5523 613.6823843027889 1648.1820262473502 -0.35446510661236763 255 255 255 0.01
5524 615.1675714705399 1648.2786461503485 -0.2585048599035318 255 255 255 0.01
5525 619.4030352784829 1648.582206915237 -0.4245843201841546 255 255 255 0.01
5526 626.5592801202868 1649.0890941209136 -0.6754681007717007 255 255 255 0.01
5527 626.6228545071616 1649.0594151650807 -0.069836293134939 255 255 255 0.01
5528 626.7194535061229 1649.0368241664007 0.5305673494856575 255 255 255 0.01
5529 625.9670453756191 1648.9496430465745 1.1561948985097663 255 255 255 0.01
5530 626.6842610741834 1648.9659958026566 1.7459510862615768 255 255 255 0.01
5531 626.7189253640994 1648.9388988929225 2.350775461802504 255 255 255 0.01
5532 626.7937382262379 1648.9098510777378 2.9592351757692903 255 255 255 0.01
5533 626.8062497010777 1648.8763014114786 3.572713636394079 255 255 255 0.01
5534 626.9495004390193 1648.8557911662824 4.196028601038961 255 255 255 0.01
5535 627.1454721754653 1648.833643769332 4.834329428088912 255 255 255 0.01
5536 627.614181479534 1648.8274653253845 5.527280031713393 255 255 255 0.01
5537 601.2277067317693 1647.2172121556355 1.467200171293193 255 255 255 0.01
5538 601.2190234269136 1647.2154599973562 1.4904766334623143 255 255 255 0.01
5539 601.2761942236588 1647.2198255807689 1.473096787495949 255 255 255 0.01
5540 601.3276202038635 1647.223388727077 1.4622585417189247 255 255 255 0.01
5541 601.3850318041798 1647.2273860170233 1.4506982342648613 255 255 255 0.01
5542 601.381113482342 1647.2260790777725 1.4732198594913661 255 255 255 0.01
5543 600.6928075967382 1647.1672452054975 1.8224940578536628 255 255 255 0.01
5544 604.881289803291 1647.512458641082 -0.06259574804796131 255 255 255 0.01
5545 605.1923944499239 1647.5322283710084 -0.07796967712944314 255 255 255 0.01
5546 605.532314703214 1647.5526533576117 -0.09014152075575477 255 255 255 0.01
5547 605.9204814271636 1647.5759987016943 -0.10312510490542803 255 255 255 0.01
5548 606.3396759188029 1647.601688319899 -0.10955305031507523 255 255 255 0.01
5549 606.8684291826129 1647.6336503399702 -0.13121492328474815 255 255 255 0.01
5550 607.4798808046445 1647.671517318906 -0.15089649796480975 255 255 255 0.01
5551 608.2203052631509 1647.7161522991485 -0.17758684932491997 255 255 255 0.01
5552 609.0954479993023 1647.7684809547623 -0.20216533396280179 255 255 255 0.01
5553 610.2441015506068 1647.8816313886273 -0.24229648093196765 255 255 255 0.01
5554 611.6418392864311 1647.9733626635514 -0.2791553044605539 255 255 255 0.01
5555 613.676078014305 1648.1056642817707 -0.3555860398325006 255 255 255 0.01
5556 615.2980000035192 1648.2034276736224 -0.27986312611344966 255 255 255 0.01
5557 619.3849473083533 1648.4719531243086 -0.4259400862254177 255 255 255 0.01
5558 622.2359713948974 1648.6426502140794 -0.26224493581611963 255 255 255 0.01
5559 621.9682055920639 1648.596252086202 0.26543045589109493 255 255 255 0.01
5560 626.8195925782758 1648.8925409042126 0.5199305711846238 255 255 255 0.01
5561 626.0568406581804 1648.8090550615464 1.148096165306345 255 255 255 0.01
5562 626.80822084751 1648.8235730030356 1.739453310310342 255 255 255 0.01
5563 626.8449621376542 1648.7964563933874 2.346961154082714 255 255 255 0.01
5564 626.9335715141028 1648.767834436267 2.9587056577035242 255 255 255 0.01
5565 626.9338691813915 1648.7334787775394 3.5744249993486585 255 255 255 0.01
5566 627.0967777465158 1648.7134012573038 4.2022345223115325 255 255 255 0.01
5567 627.3362213650296 1648.6926311138268 4.8486395836741165 255 255 255 0.01
5568 627.861823062627 1648.686914552199 5.553587517653135 255 255 255 0.01
5569 601.2198564306203 1647.2130716493455 1.472589579724131 255 255 255 0.01
5570 601.2279115950587 1647.2128769660221 1.4850263550037504 255 255 255 0.01
5571 601.2836131755839 1647.216767552011 1.4688556390230025 255 255 255 0.01
5572 601.3334484489674 1647.2199178622095 1.45915144125553 255 255 255 0.01
5573 601.4119911810187 1647.225249752282 1.4363706190900203 255 255 255 0.01
5574 601.5684735698542 1647.236712226376 1.3782450752304203 255 255 255 0.01
5575 604.6216503409413 1647.4736066281125 -0.057833582468112876 255 255 255 0.01
5576 604.879476083691 1647.4873885523991 -0.06196289098382213 255 255 255 0.01
5577 605.1925182213373 1647.5054317619874 -0.07827128654798998 255 255 255 0.01
5578 605.5325435231481 1647.523963582305 -0.09056530465090207 255 255 255 0.01
5579 605.9095734700275 1647.5442357814456 -0.09954356496496275 255 255 255 0.01
5580 606.3382744063244 1647.5681913841624 -0.10960655493246696 255 255 255 0.01
5581 606.8613811623632 1647.5967250825395 -0.12967351863081555 255 255 255 0.01
5582 607.4709684906286 1647.6309468991028 -0.14916418871041293 255 255 255 0.01
5583 608.2078117511654 1647.6710364024211 -0.17526962527769196 255 255 255 0.01
5584 609.0909713146311 1647.7188976882228 -0.20228317541344865 255 255 255 0.01
5585 610.2362659500418 1647.8251200340947 -0.2420355280925195 255 255 255 0.01
5586 611.6266015090993 1647.9082510652327 -0.27798939740787 255 255 255 0.01
5587 613.6653754962451 1648.0290979983165 -0.3560183952503566 255 255 255 0.01
5588 615.4379431239678 1648.127389975194 -0.30267966939320834 255 255 255 0.01
5589 619.3642966574787 1648.3618447028296 -0.4270132569087175 255 255 255 0.01
5590 621.6697984067348 1648.481932302452 -0.21164629836888782 255 255 255 0.01
5591 621.8227152689805 1648.4638341469836 0.2716725073577506 255 255 255 0.01
5592 626.8989596972147 1648.74594279151 0.5102933409554538 255 255 255 0.01
5593 626.1559128533589 1648.6681383074422 1.1397344368142868 255 255 255 0.01
5594 626.9055440642397 1648.6782164891792 1.7330336507245536 255 255 255 0.01
5595 626.9981012282532 1648.6541352431059 2.343690098323915 255 255 255 0.01
5596 627.074614472061 1648.6244020121499 2.9582447057782466 255 255 255 0.01
5597 627.0926206550005 1648.5910466188143 3.5782453562296417 255 255 255 0.01
5598 627.2811692532408 1648.5713472652392 4.211817205063614 255 255 255 0.01
5599 627.5499113483373 1648.5506792510594 4.865608622237526 255 255 255 0.01
5600 628.3204784045192 1648.554161740785 5.608851637730885 255 255 255 0.01
5601 601.2254454994733 1647.2101522588553 1.4691500933980324 255 255 255 0.01
5602 601.2284915583323 1647.209514655089 1.4848979111181015 255 255 255 0.01
5603 601.2687974360824 1647.2118356246765 1.4779430020855457 255 255 255 0.01
5604 601.3425741124493 1647.2166002157114 1.454072724243027 255 255 255 0.01
5605 601.4354051552715 1647.2225351951108 1.4239204355245012 255 255 255 0.01
5606 601.670546346947 1647.2386567835754 1.3265368583529757 255 255 255 0.01
5607 604.6070235490373 1647.4490799814716 -0.051014914114644094 255 255 255 0.01
5608 604.8830364776499 1647.4626361882215 -0.06377922025700533 255 255 255 0.01
5609 605.1870166933815 1647.4775262060602 -0.07626568606250728 255 255 255 0.01
5610 605.5288634707906 1647.4950038911893 -0.08951194538051599 255 255 255 0.01
5611 605.907827736125 1647.5131833300586 -0.099398827608848 255 255 255 0.01
5612 606.3272141292211 1647.5330728137058 -0.10645551437480805 255 255 255 0.01
5613 606.8560435331854 1647.5599677992643 -0.128719771476149 255 255 255 0.01
5614 607.4640006957837 1647.5893821692844 -0.1480209092442848 255 255 255 0.01
5615 608.2087434916762 1647.6256161788338 -0.17657858298225726 255 255 255 0.01
5616 609.0745113761227 1647.667164912105 -0.19963292701924473 255 255 255 0.01
5617 610.2261106121264 1647.7685687230858 -0.24133042544616856 255 255 255 0.01
5618 611.6247840254078 1647.8422858155823 -0.279512330993712 255 255 255 0.01
5619 613.6541859778856 1647.9527190098197 -0.3564217922883497 255 255 255 0.01
5620 615.5754298627835 1648.0496659444404 -0.3252495184512951 255 255 255 0.01
5621 619.3450855656695 1648.2488546594948 -0.4284135380857341 255 255 255 0.01
5622 621.6789551299336 1648.3606289001364 -0.2167499094625045 255 255 255 0.01
5623 621.8875593212143 1648.3448955888787 0.2624835978224016 255 255 255 0.01
5624 627.0394661019428 1648.5972656712931 0.4973720600704974 255 255 255 0.01
5625 626.2441039504621 1648.52561106484 1.131643069077961 255 255 255 0.01
5626 627.1138756572326 1648.5376540091902 1.7262092250340035 255 255 255 0.01
5627 627.1686478443404 1648.5064687865965 2.3405615579722268 255 255 255 0.01
5628 627.248941852437 1648.476456792203 2.9590325459841393 255 255 255 0.01
5629 627.2744407273594 1648.4479772279412 3.5836243050711065 255 255 255 0.01
5630 627.4849194673886 1648.4235635130326 4.222958536179088 255 255 255 0.01
5631 627.816784256934 1648.4040944991104 4.888398184533723 255 255 255 0.01
5632 652.1895985443001 1649.4577675651467 8.866115285863494 255 255 255 0.01
5633 601.2292008419689 1647.2069443084733 1.4668098502573155 255 255 255 0.01
5634 601.2290704150863 1647.206030258554 1.484766497783654 255 255 255 0.01
5635 601.2709625930643 1647.2082758186232 1.4767761268476658 255 255 255 0.01
5636 601.3327635890772 1647.2116839616176 1.4598267991627056 255 255 255 0.01
5637 601.4342640405094 1647.217845616936 1.42468930192259 255 255 255 0.01
5638 601.6924789640694 1647.2341245087189 1.3154597620062376 255 255 255 0.01
5639 604.6014314242805 1647.4246543401384 -0.04852090179461599 255 255 255 0.01
5640 604.8773145164438 1647.43735725134 -0.06149023573844148 255 255 255 0.01
5641 605.1849428036671 1647.4506886100082 -0.07577130493938644 255 255 255 0.01
5642 605.5213973554929 1647.465834386912 -0.08697894816596241 255 255 255 0.01
5643 605.9041283895915 1647.4820877074703 -0.09855258216958296 255 255 255 0.01
5644 606.3310662118017 1647.5000777000416 -0.10842512293874784 255 255 255 0.01
5645 606.8543712369418 1647.5235433833461 -0.12895776038498896 255 255 255 0.01
5646 607.4585105417617 1647.549269160112 -0.14737139493648077 255 255 255 0.01
5647 608.1994405803015 1647.5823023970672 -0.17519876355138253 255 255 255 0.01
5648 609.0635766490743 1647.6189217329347 -0.19824688100963783 255 255 255 0.01
5649 610.2040936610489 1647.7098060013786 -0.23813303363060845 255 255 255 0.01
5650 611.6068617300579 1647.7773820709565 -0.2779161662135565 255 255 255 0.01
5651 613.6328410311478 1647.8736849478985 -0.35522984285848036 255 255 255 0.01
5652 615.722648711294 1647.968252307679 -0.34939024982261646 255 255 255 0.01
5653 600.6939012200993 1647.1666859732384 1.8224953856554034 255 255 255 0.01
5654 621.7311915652743 1648.23783688938 -0.22622580480620957 255 255 255 0.01
5655 621.9398197459835 1648.2246663548653 0.25418528901555115 255 255 255 0.01
5656 627.2228681090257 1648.453693763973 0.4824023032102609 255 255 255 0.01
5657 626.3398202046701 1648.3780101216682 1.1231603326442692 255 255 255 0.01
5658 627.303379413156 1648.3939668543978 1.719406057312216 255 255 255 0.01
5659 627.3660859764577 1648.3627704288278 2.338128974818226 255 255 255 0.01
5660 627.4521586106241 1648.3371005471156 2.961434681230119 255 255 255 0.01
5661 627.4934884403278 1648.3044498737238 3.5914685839289997 255 255 255 0.01
5662 627.7214190723164 1648.2795115728568 4.237264491689376 255 255 255 0.01
5663 628.239298106777 1648.2702638074413 4.9291852150183875 255 255 255 0.01
5664 652.0097399062737 1649.1560968889255 8.827851088076716 255 255 255 0.01
5665 601.2380878916182 1647.204239183316 1.461161809599681 255 255 255 0.01
5666 601.2312394391364 1647.2028976873494 1.4835779412272045 255 255 255 0.01
5667 601.2783815488277 1647.2052177913586 1.4725388006292717 255 255 255 0.01
5668 601.3401797838784 1647.2083207928367 1.4557371575065292 255 255 255 0.01
5669 601.4312919568304 1647.2131726470507 1.426410892738734 255 255 255 0.01
5670 601.721617267231 1647.229954310704 1.3007646558498354 255 255 255 0.01
5671 604.6117308543479 1647.402648695326 -0.05372453498546381 255 255 255 0.01
5672 604.8877220822711 1647.4138245280433 -0.06654326411507361 255 255 255 0.01
5673 605.1845866745806 1647.4248117960274 -0.0760135020517212 255 255 255 0.01
5674 605.5210241162457 1647.4380656396295 -0.08733871002957794 255 255 255 0.01
5675 605.900071427654 1647.45197183557 -0.09765814448590238 255 255 255 0.01
5676 606.3271102273962 1647.4675801703947 -0.10775602124260164 255 255 255 0.01
5677 606.8485572448138 1647.488071912277 -0.1279334431261656 255 255 255 0.01
5678 607.4527877099921 1647.510378631643 -0.14665961511772796 255 255 255 0.01
5679 608.1957565959058 1647.5394264759082 -0.17534381439436686 255 255 255 0.01
5680 609.0503226178585 1647.5707000231143 -0.19637170042992436 255 255 255 0.01
5681 610.1912706107225 1647.6552320388992 -0.23688982177538298 255 255 255 0.01
5682 611.5943346348298 1647.714992890381 -0.2773488384542522 255 255 255 0.01
5683 613.6227750597093 1647.8000426753747 -0.35581317648466193 255 255 255 0.01
5684 615.8651369953278 1647.8902390877026 -0.37278803057971777 255 255 255 0.01
5685 616.1170528313187 1647.8850373530408 -0.044791648361594216 255 255 255 0.01
5686 621.8242788537564 1648.1237089980214 -0.23946726694366216 255 255 255 0.01
5687 622.0092041124528 1648.108372970511 0.2447226276056873 255 255 255 0.01
5688 627.4352362420746 1648.3140103197916 0.46606351246684263 255 255 255 0.01
5689 626.8038019178357 1648.253692004586 1.1048817936114737 255 255 255 0.01
5690 627.5239250174641 1648.254026748221 1.7126183930796404 255 255 255 0.01
5691 627.6066551871803 1648.2231990491293 2.3366796739649125 255 255 255 0.01
5692 627.7143365993911 1648.1978222161877 2.9663279991038998 255 255 255 0.01
5693 627.7594487027192 1648.1648931078878 3.6025951873046496 255 255 255 0.01
5694 628.0864008145131 1648.1421120269904 4.263229242995514 255 255 255 0.01
5695 651.8451114985322 1648.931906936392 7.578902927077452 255 255 255 0.01
5696 651.8336447996195 1648.8656231599798 8.790920104150675 255 255 255 0.01
5697 601.2368346600841 1647.2006493062418 1.4621353471863374 255 255 255 0.01
5698 601.231696242459 1647.199414422518 1.4834480526039115 255 255 255 0.01
5699 601.2771260989135 1647.2013837854624 1.4734244883132415 255 255 255 0.01
5700 601.3355004422997 1647.2038463626247 1.458540330083793 255 255 255 0.01
5701 601.4388208387451 1647.208770809324 1.4224452667288563 255 255 255 0.01
5702 601.704337568003 1647.2225420621612 1.3095640490000502 255 255 255 0.01
5703 604.6111470989671 1647.3786050094282 -0.05380274614858327 255 255 255 0.01
5704 604.8800326128357 1647.3869765780792 -0.06347520596103107 255 255 255 0.01
5705 605.1822620034493 1647.3972437514851 -0.07553216157473353 255 255 255 0.01
5706 605.5262458957095 1647.4080490273789 -0.08999690592115339 255 255 255 0.01
5707 605.8959906285895 1647.4191705397186 -0.09686189298818282 255 255 255 0.01
5708 606.3249683616434 1647.4332355317597 -0.10780185374866824 255 255 255 0.01
5709 606.8407595447266 1647.4492616924126 -0.12642046362651582 255 255 255 0.01
5710 607.4488754286023 1647.4692748415625 -0.14658637380594897 255 255 255 0.01
5711 608.1784807789995 1647.4919734608795 -0.1720284176089404 255 255 255 0.01
5712 609.0505862173345 1647.518876521712 -0.1979376509813151 255 255 255 0.01
5713 610.1861121532066 1647.5977811839225 -0.2374514685681004 255 255 255 0.01
5714 611.5893446589637 1647.649239511461 -0.27842206815964277 255 255 255 0.01
5715 613.6064409444585 1647.721756995612 -0.35555208778787195 255 255 255 0.01
5716 616.0173328933946 1647.805667692016 -0.3978685843913121 255 255 255 0.01
5717 616.1943742849304 1647.7958939719317 -0.05733568412495149 255 255 255 0.01
5718 621.8832205200295 1647.9998796745906 -0.24970061531574128 255 255 255 0.01
5719 627.6370210329026 1648.1917465966303 -0.17789260063138546 255 255 255 0.01
5720 627.8488682668194 1648.170065065117 0.43903322881884677 255 255 255 0.01
5721 627.1156215465412 1648.1095084258347 1.0902846398531951 255 255 255 0.01
5722 627.8642365623389 1648.1017109243733 1.704701558045115 255 255 255 0.01
5723 627.9805836944915 1648.0760117166403 2.337323528789585 255 255 255 0.01
5724 628.106287359193 1648.0455891695867 2.9760536303684684 255 255 255 0.01
5725 628.2205071991303 1648.0142949493968 3.625897707037592 255 255 255 0.01
5726 633.7159503854356 1648.1474803576807 4.75649949345328 255 255 255 0.01
5727 635.3708463487308 1648.1526739503431 5.715737306845796 255 255 255 0.01
5728 651.666727150419 1648.5510194344827 8.754460913166994 255 255 255 0.01
5729 601.2273986196012 1647.1966452605704 1.468643495532539 255 255 255 0.01
5730 601.2220166206791 1647.1954736045095 1.4897224309357961 255 255 255 0.01
5731 601.2741617517457 1647.197565276108 1.4753431091409963 255 255 255 0.01
5732 601.3376628375465 1647.1999814225353 1.457404825292734 255 255 255 0.01
5733 601.4392677072766 1647.2041889215257 1.4222727404993194 255 255 255 0.01
5734 601.7013506004561 1647.2162211825944 1.3111403528458592 255 255 255 0.01
5735 604.6104475006209 1647.3552340081778 -0.05384569427909813 255 255 255 0.01
5736 604.879319216575 1647.3620797548751 -0.06362084293070036 255 255 255 0.01
5737 605.1760369092673 1647.3703215339692 -0.07345262606305836 255 255 255 0.01
5738 605.5145073155419 1647.3789181837137 -0.0859590808356947 255 255 255 0.01
5739 605.8973002730393 1647.3885178655387 -0.09805686987376783 255 255 255 0.01
5740 606.3262554538883 1647.4000803316062 -0.10909341836004605 255 255 255 0.01
5741 606.8480036566887 1647.4133668711113 -0.12964113514955167 255 255 255 0.01
5742 607.442776927063 1647.4293503696836 -0.1458921049759836 255 255 255 0.01
5743 608.1840681906081 1647.4483417669271 -0.17476671819566092 255 255 255 0.01
5744 609.034879238197 1647.4693947618252 -0.19561081339398312 255 255 255 0.01
5745 610.1785272757629 1647.5420001757807 -0.23750261865528755 255 255 255 0.01
5746 611.574238469972 1647.5851032530393 -0.2775022283616395 255 255 255 0.01
5747 613.5797500765659 1647.6455791030035 -0.35350495327251963 255 255 255 0.01
5748 616.1669728906296 1647.7219740383987 -0.422597972383258 255 255 255 0.01
5749 616.7274418697604 1647.7244796237317 -0.12522187264812867 255 255 255 0.01
5750 627.9909049681855 1648.0820213129136 -0.8526766381374884 255 255 255 0.01
5751 622.9657199652919 1647.8850509935332 0.16422101014890278 255 255 255 0.01
5752 628.0937433693034 1648.0208110036845 0.42063006471595865 255 255 255 0.01
5753 627.0428094322612 1647.9548864481558 1.0864920462716223 255 255 255 0.01
5754 628.4352582067033 1647.9615308241996 1.6959931418161953 255 255 255 0.01
5755 628.6994648903368 1647.9388283949868 2.344479001527822 255 255 255 0.01
5756 600.6949948367809 1647.1661267446793 1.8224965926234984 255 255 255 0.01
5757 600.6949948367809 1647.1661267446793 1.8224965926234984 255 255 255 0.01
5758 633.777854262612 1647.959718577899 4.754039842886305 255 255 255 0.01
5759 635.5320554436041 1647.9578478079834 5.725342159478754 255 255 255 0.01
5760 651.4854631337507 1648.2557704084104 8.717253649926535 255 255 255 0.01
5761 601.2327419172652 1647.1935449981816 1.4652016488399737 255 255 255 0.01
5762 601.2291919969198 1647.1924788032254 1.4853326501307882 255 255 255 0.01
5763 601.2848759348474 1647.1944163713922 1.469044554366508 255 255 255 0.01
5764 601.3416567862199 1647.1961609286157 1.4552823939230302 255 255 255 0.01
5765 601.443256121802 1647.1997581004555 1.4202083898707862 255 255 255 0.01
5766 601.6697853596884 1647.2085110947075 1.327200620741717 255 255 255 0.01
5767 604.6096263776254 1647.3319250721254 -0.05388088755678466 255 255 255 0.01
5768 604.8711564488174 1647.3368839023274 -0.06047209752329463 255 255 255 0.01
5769 605.1753007134291 1647.3429223249746 -0.07372959271249346 255 255 255 0.01
5770 605.5136386635147 1647.3503604289947 -0.08632368261545742 255 255 255 0.01
5771 605.8927480035596 1647.3576129123103 -0.09716524963199413 255 255 255 0.01
5772 606.3142232190845 1647.365458629675 -0.10587209671668618 255 255 255 0.01
5773 606.8320458397516 1647.3766444859098 -0.12559590452433422 255 255 255 0.01
5774 607.4326393114009 1647.3882415246549 -0.1441084231850227 255 255 255 0.01
5775 608.169982218343 1647.4026300882563 -0.17239019055061466 255 255 255 0.01
5776 609.0189164118711 1647.4186338411412 -0.19331847248968437 255 255 255 0.01
5777 610.1628838613551 1647.4860482875554 -0.23583414845282302 255 255 255 0.01
5778 611.5567952298917 1647.519157320971 -0.2762514471705395 255 255 255 0.01
5779 613.5683258097728 1647.570240142425 -0.35408879564006845 255 255 255 0.01
5780 616.3261217369072 1647.6368513241146 -0.44880475265769615 255 255 255 0.01
5781 616.7481874312026 1647.629194457286 -0.1311228454671154 255 255 255 0.01
5782 628.7774252696978 1647.9458116031144 -0.9356247791107943 255 255 255 0.01
5783 628.9248473990513 1647.9142160420388 -0.285491403953793 255 255 255 0.01
5784 628.9988857385088 1647.8806599194913 0.36801451849655553 255 255 255 0.01
5785 626.9831912204609 1647.8014275248117 1.0823856306425705 255 255 255 0.01
5786 651.4053350639203 1648.3281984356368 1.579930571437524 255 255 255 0.01
5787 600.6952373105045 1647.1659414390544 1.8224969539595737 255 255 255 0.01
5788 633.118440032673 1647.8280724770987 3.1717705076550753 255 255 255 0.01
5789 633.4320300523691 1647.7990656261077 3.9519714361006875 255 255 255 0.01
5790 632.9045716132878 1647.7485516348781 4.668832210950794 255 255 255 0.01
5791 635.3922304385792 1647.7500600873184 5.701155859523752 255 255 255 0.01
5792 651.3224060603108 1647.962982753695 8.682902391267938 255 255 255 0.01
5793 601.246510488908 1647.1906735896525 1.4562217211116268 255 255 255 0.01
5794 601.2279393235365 1647.1889499801139 1.4862738682476526 255 255 255 0.01
5795 601.2887494558337 1647.190780049422 1.4668496217871096 255 255 255 0.01
5796 601.3438169766299 1647.1920518337554 1.4541425928453358 255 255 255 0.01
5797 601.4472439888335 1647.195266241632 1.418143659314662 255 255 255 0.01
5798 601.673883179671 1647.2026753879109 1.3251667764469528 255 255 255 0.01
5799 600.6956018712162 1647.1657550174955 1.8224974355847268 255 255 255 0.01
5800 604.8720309637007 1647.312094838351 -0.06142172349850972 255 255 255 0.01
5801 605.172495988908 1647.3162741508163 -0.07318775417117762 255 255 255 0.01
5802 605.5127705440252 1647.3218635137403 -0.08667904177207064 255 255 255 0.01
5803 605.8862429455137 1647.3267255186718 -0.09556934812324047 255 255 255 0.01
5804 606.3170985764601 1647.332472418635 -0.10778995966806182 255 255 255 0.01
5805 606.8312308462049 1647.340517584275 -0.12637433959283362 255 255 255 0.01
5806 607.4355776929857 1647.3487235692696 -0.14618530603782998 255 255 255 0.01
5807 608.1634931269277 1647.3600235310544 -0.1719552717341224 255 255 255 0.01
5808 609.018245272499 1647.3713968972434 -0.19465770213147104 255 255 255 0.01
5809 610.1624910086406 1647.4291035385506 -0.23760668005224117 255 255 255 0.01
5810 611.5447444353028 1647.455543090222 -0.27603663784722876 255 255 255 0.01
5811 613.5269669412079 1647.491997709703 -0.34972562923461403 255 255 255 0.01
5812 616.4610533153169 1647.546576409442 -0.47170664574793975 255 255 255 0.01
5813 616.7565027877444 1647.5362816927814 -0.13544189312644894 255 255 255 0.01
5814 600.6956018712162 1647.1657550174955 1.8224974355847268 255 255 255 0.01
5815 600.6956018712162 1647.1657550174955 1.8224974355847268 255 255 255 0.01
5816 600.6956018712162 1647.1657550174955 1.8224974355847268 255 255 255 0.01
5817 627.2025259160515 1647.6492305231804 1.0702347895617166 255 255 255 0.01
5818 651.2575239659586 1648.0337452033953 1.5694393517325804 255 255 255 0.01
5819 651.2408330168439 1647.9706855349336 2.741535134534725 255 255 255 0.01
5820 633.3819891316131 1647.6514265826656 3.1755633806731636 255 255 255 0.01
5821 632.9170633745937 1647.6042523636297 3.9111039059019914 255 255 255 0.01
5822 633.069675496164 1647.566080916059 4.675948015894651 255 255 255 0.01
5823 632.9892676380128 1647.530383224574 5.425225353886996 255 255 255 0.01
5824 651.1654759027233 1647.6722124980226 8.64978434274487 255 255 255 0.01
5825 601.2352451183174 1647.1868692150395 1.4638485132678498 255 255 255 0.01
5826 601.2249788389016 1647.1855586970414 1.4882919001083748 255 255 255 0.01
5827 601.2805346379113 1647.1868259805071 1.471860291689787 255 255 255 0.01
5828 601.344269911915 1647.1881413352558 1.454000103486693 255 255 255 0.01
5829 601.4476902856183 1647.1906233412976 1.41797353255314 255 255 255 0.01
