# 3D point list with one line of data per point:
#   POINT3D_ID, X, Y, Z, R, G, B, ERROR, TRACK[] as (IMAGE_ID, POINT2D_IDX)
# Number of points: 610
3529 609.875447619361 1646.4524733400142 -0.2152791885280112 255 255 255 0.01
3530 611.2007756997406 1646.339651554492 -0.25486951283852166 255 255 255 0.01
3531 613.0958657290215 1646.1768125099745 -0.32962808180216774 255 255 255 0.01
3532 615.9073999913376 1645.9358570260122 -0.4551290745388168 255 255 255 0.01
3533 620.0824581290371 1645.5804513348266 -0.6211807369660516 255 255 255 0.01
3534 625.5589756129605 1645.1052392634242 -0.7261019833055009 255 255 255 0.01
3535 631.7406837142095 1644.5584654654613 -0.6265195313820611 255 255 255 0.01
3536 640.7027787442751 1643.7687031169924 -0.3985428498414181 255 255 255 0.01
3537 648.3395661336081 1643.0672944998907 0.2880751055115214 255 255 255 0.01
3538 631.5141165366781 1644.4789498238056 1.5528677987637176 255 255 255 0.01
3539 630.5372920927849 1644.5358360747623 2.2561287341850544 255 255 255 0.01
3540 636.4007845856522 1643.9796863992603 3.173104813517143 255 255 255 0.01
3541 635.1949313015223 1644.0482889475002 3.9387783612383345 255 255 255 0.01
3542 634.0025751059254 1644.1243973550006 4.645543978338221 255 255 255 0.01
3543 633.5449548716451 1644.1292218158221 5.3789623590176205 255 255 255 0.01
3544 632.1131514283486 1644.225865858382 5.971943001937622 255 255 255 0.01
3545 605.7941021957649 1646.7492273847224 -0.08748209848853139 255 255 255 0.01
3546 606.1997668874295 1646.7096678603848 -0.09528114593979242 255 255 255 0.01
3547 606.6898447897061 1646.6631803089108 -0.11145694272268214 255 255 255 0.01
3548 607.2791974428246 1646.6062114983567 -0.13306142800082066 255 255 255 0.01
3549 607.9642936461188 1646.5397705381238 -0.15435898447828644 255 255 255 0.01
3550 608.7656224880121 1646.4617187908354 -0.1724564711468599 255 255 255 0.01
3551 609.8477587822609 1646.4009026478805 -0.21184331154927838 255 255 255 0.01
3552 611.1740976174082 1646.2784279186765 -0.2526776800188215 255 255 255 0.01
3553 613.0604446020237 1646.1072447491867 -0.32687322765561033 255 255 255 0.01
3554 615.8604876257655 1645.85095033872 -0.45211451734458397 255 255 255 0.01
3555 620.3196290826668 1645.4430462374423 -0.6562037375424747 255 255 255 0.01
3556 625.5485180792496 1644.9612851317145 -0.731030688468314 255 255 255 0.01
3557 636.887304781478 1643.8756075027527 -0.1948068726126273 255 255 255 0.01
3558 634.7114634887844 1644.0412461473247 0.7200482159630752 255 255 255 0.01
3559 631.2495261836011 1644.3247206300778 1.549277324567384 255 255 255 0.01
3560 634.9574147117911 1643.903991187385 3.1125366241421064 255 255 255 0.01
3561 634.4730451274609 1643.880508409311 4.680404727692453 255 255 255 0.01
3562 632.4252430854538 1644.0440061276724 5.253413587323163 255 255 255 0.01
3563 631.8918540320939 1644.0667282098664 5.938987973395174 255 255 255 0.01
3564 605.7877216496471 1646.7186442448901 -0.08707976273537898 255 255 255 0.01
3565 606.189338744554 1646.6769850866053 -0.0937293435592268 255 255 255 0.01
3566 606.6791469979041 1646.627631046126 -0.11017525110082915 255 255 255 0.01
3567 607.2622473034867 1646.5677278074827 -0.13036567724378556 255 255 255 0.01
3568 607.9507215760162 1646.496861683115 -0.15315433121569244 255 255 255 0.01
3569 608.7457864869007 1646.4145939371404 -0.17019263726608913 255 255 255 0.01
3570 609.8235944277109 1646.3476525684464 -0.20930020116234171 255 255 255 0.01
3571 611.154863664334 1646.2168313463749 -0.25200774045970853 255 255 255 0.01
3572 613.0243973734658 1646.0359129941376 -0.3241546624082776 255 255 255 0.01
3573 615.8129459060028 1645.7639746533273 -0.4491429229872894 255 255 255 0.01
3574 620.5637247664889 1645.3020994542267 -0.6922849196476584 255 255 255 0.01
3575 625.5526562787278 1644.8114613322502 -0.7376875276651962 255 255 255 0.01
3576 634.7484340171729 1643.9034844636412 -0.879751487368484 255 255 255 0.01
3577 634.7363798382543 1643.8668031268562 -0.0825352940241113 255 255 255 0.01
3578 634.5870442987332 1643.849614542118 0.7169241796746606 255 255 255 0.01
3579 631.3199561737148 1644.1349282784265 1.542591153899038 255 255 255 0.01
3580 630.6422533539849 1644.168782251192 2.2465447178171987 255 255 255 0.01
3581 633.2460000910685 1643.872409155946 3.0425217107328715 255 255 255 0.01
3582 631.7002096826172 1643.9996279416807 3.7146327252933293 255 255 255 0.01
3583 630.8697025615487 1644.0508555136303 4.371129613636838 255 255 255 0.01
3584 631.9583809938167 1643.903873501912 5.198855375846296 255 255 255 0.01
3585 632.083241189184 1643.8611919367916 5.960606409133719 255 255 255 0.01
3586 605.7701284754959 1646.6900547110567 -0.08243024449643199 255 255 255 0.01
3587 606.1808813171548 1646.6461764666346 -0.09275881352786297 255 255 255 0.01
3588 606.6778509526787 1646.592301826452 -0.11191244746681361 255 255 255 0.01
3589 607.2531251459005 1646.5309437993144 -0.12985288897836655 255 255 255 0.01
3590 607.9333925443623 1646.4569776354517 -0.15080119468883835 255 255 255 0.01
3591 608.7413452913572 1646.3689780205932 -0.1716510656605037 255 255 255 0.01
3592 609.8148152094267 1646.2948124057452 -0.21014834955733352 255 255 255 0.01
3593 611.1298089192824 1646.1596827239998 -0.250028858003994 255 255 255 0.01
3594 612.9980085238316 1645.9661411331053 -0.3230418897456744 255 255 255 0.01
3595 615.761163781323 1645.6805165800477 -0.4454480484624366 255 255 255 0.01
3596 620.795782447234 1645.1663278651079 -0.726695494641235 255 255 255 0.01
3597 621.2686799551768 1645.0965038241104 -0.301358049852289 255 255 255 0.01
3598 634.8240861902233 1643.6971635306834 -0.8936689607353485 255 255 255 0.01
3599 640.8576380294862 1643.0472403542283 -0.43366932098527 255 255 255 0.01
3600 634.621240586176 1643.6487965858312 0.7088744423726157 255 255 255 0.01
3601 646.87469091378 1642.3285810451512 1.3915842132242586 255 255 255 0.01
3602 630.8841590461406 1643.974508435155 2.2447937346152624 255 255 255 0.01
3603 632.7388304640702 1643.7433846997835 3.0184464356985305 255 255 255 0.01
3604 631.2674691592235 1643.8665730630153 3.683660984069399 255 255 255 0.01
3605 634.3557284635498 1643.5024039139457 4.661236949428513 255 255 255 0.01
3606 631.7173992838461 1643.7549844271414 5.169187304048441 255 255 255 0.01
3607 632.1142857004395 1643.6763949078263 5.961346298565766 255 255 255 0.01
3608 605.7393642455855 1646.6629271644344 -0.07285512538348882 255 255 255 0.01
3609 606.1758303389781 1646.6141164251521 -0.09312309680705155 255 255 255 0.01
3610 606.6610657534843 1646.5585776528462 -0.10872791860228936 255 255 255 0.01
3611 607.243504877844 1646.493065292707 -0.12936288954048636 255 255 255 0.01
3612 607.9195901557572 1646.415658171159 -0.14951979903510404 255 255 255 0.01
3613 608.7231104322673 1646.3234255927757 -0.16978207798676825 255 255 255 0.01
3614 609.7959137636534 1646.2430402655773 -0.20880828638276583 255 255 255 0.01
3615 611.1042527997548 1646.1009512887556 -0.24808290986649384 255 255 255 0.01
3616 612.9633283927492 1645.897482695537 -0.3205280452197057 255 255 255 0.01
3617 615.7228018739437 1645.5962040368752 -0.44378661840867206 255 255 255 0.01
3618 620.8350876183835 1645.0445068933545 -0.7369368190070542 255 255 255 0.01
3619 621.3947957008552 1644.9627887555748 -0.31949309884010635 255 255 255 0.01
3620 636.2068596661322 1643.349375975258 -1.0120121505599853 255 255 255 0.01
3621 637.3252646570262 1643.195469697675 -0.24319386230313 255 255 255 0.01
3622 648.0510516045485 1641.9819678805948 0.258278052742442 255 255 255 0.01
3623 646.7250654968001 1642.0763227992124 1.3842679973506975 255 255 255 0.01
3624 634.1749213705872 1643.432334834883 2.2849889830903516 255 255 255 0.01
3625 634.2882452329792 1643.382922256505 3.0709112758188644 255 255 255 0.01
3626 631.4174501303262 1643.6721551529274 3.688324907278697 255 255 255 0.01
3627 632.5174158943729 1643.5178673178834 4.502008904482558 255 255 255 0.01
3628 631.8821145475359 1643.556343137826 5.183348666400497 255 255 255 0.01
3629 632.1304485777792 1643.4928300056658 5.960310626167032 255 255 255 0.01
3630 605.7418978414217 1646.6326295982703 -0.07589268495023749 255 255 255 0.01
3631 606.1688284405534 1646.582318286616 -0.09281774869174408 255 255 255 0.01
3632 606.6479400807026 1646.524576555445 -0.1067555496737258 255 255 255 0.01
3633 607.2262025522735 1646.4561720212444 -0.12658019512056118 255 255 255 0.01
3634 607.9093255100249 1646.3740010316765 -0.14927133228883038 255 255 255 0.01
3635 608.696827265034 1646.2788618922698 -0.16597234131218386 255 255 255 0.01
3636 609.7729889455212 1646.191853820525 -0.2065773911365274 255 255 255 0.01
3637 611.0744295153271 1646.0428691445322 -0.24533205586184526 255 255 255 0.01
3638 612.9381644453276 1645.8281267173488 -0.31969614520689804 255 255 255 0.01
3639 615.6779788565577 1645.5128662386458 -0.4411943512511445 255 255 255 0.01
3640 620.7908504925358 1644.9313767375224 -0.7366071230916917 255 255 255 0.01
3641 625.4703009101236 1644.3846374960442 -0.7475531451279318 255 255 255 0.01
3642 636.0354749786133 1643.16115906679 -1.0065998970223498 255 255 255 0.01
3643 636.3177336961322 1643.0965481421574 -0.1941502327229747 255 255 255 0.01
3644 648.6420762731158 1641.637558009355 0.22899846442812288 255 255 255 0.01
3645 646.6258152787698 1641.8196412606512 1.3765806381992207 255 255 255 0.01
3646 634.0541413052852 1643.251595515573 2.2775613763788196 255 255 255 0.01
3647 634.4195227729122 1643.172070663279 3.0704862770987047 255 255 255 0.01
3648 634.4344283667579 1643.1333750817546 3.8668289548229327 255 255 255 0.01
3649 632.1604063469598 1643.376131229996 4.4679765212327975 255 255 255 0.01
3650 631.8460934163294 1643.379904078251 5.176030838710119 255 255 255 0.01
3651 631.8384631956453 1643.3465391211819 5.91891933140012 255 255 255 0.01
3652 605.7479676851982 1646.601872530466 -0.08032673271763002 255 255 255 0.01
3653 606.1652326190934 1646.5491459820723 -0.09384797606553241 255 255 255 0.01
3654 606.6422545670277 1646.489836639597 -0.1072267716364621 255 255 255 0.01
3655 607.2123054905095 1646.4178440463663 -0.12495571228909208 255 255 255 0.01
3656 607.9006354362384 1646.3309869293093 -0.14957173233575816 255 255 255 0.01
3657 608.6971186690132 1646.2300899472525 -0.1689095486743628 255 255 255 0.01
3658 609.7554318423759 1646.140252739171 -0.2056266507421327 255 255 255 0.01
3659 611.0480065789102 1645.9828641940694 -0.24338848738243168 255 255 255 0.01
3660 612.9086111350806 1645.759421479756 -0.3181476517395492 255 255 255 0.01
3661 615.636697357371 1645.4296173987416 -0.4391557979778864 255 255 255 0.01
3662 620.7493883155366 1644.814681211674 -0.7368410305292086 255 255 255 0.01
3663 625.4536227977975 1644.2413503498167 -0.7520408669708583 255 255 255 0.01
3664 635.8770292264421 1642.9730700654084 -1.0021791106938656 255 255 255 0.01
3665 636.9867241777264 1642.8014822949574 -0.2402250387883229 255 255 255 0.01
3666 647.8355847093485 1641.4551476947595 0.24623919298903707 255 255 255 0.01
3667 646.4496276890085 1641.5731164969416 1.3697518417984775 255 255 255 0.01
3668 634.0565990677854 1643.0508816310528 2.2717361089527577 255 255 255 0.01
3669 634.3205089306622 1642.9819788718294 3.061479510826389 255 255 255 0.01
3670 633.9955097977019 1642.9920140488211 3.8356360770515168 255 255 255 0.01
3671 630.8274081656388 1643.3561408178873 4.352093721719737 255 255 255 0.01
3672 631.3231385670184 1643.2602377092676 5.116403013191299 255 255 255 0.01
3673 631.823054729784 1643.167959662032 5.914150823335797 255 255 255 0.01
3674 605.7668325934515 1646.5686194042185 -0.08969981898846502 255 255 255 0.01
3675 606.1539635850382 1646.5179357310979 -0.0922018447854549 255 255 255 0.01
3676 606.6343648853458 1646.4543229088374 -0.10710319384952505 255 255 255 0.01
3677 607.2058586351199 1646.3798758065377 -0.12556021300865683 255 255 255 0.01
3678 607.8841526313854 1646.2902410417353 -0.14771410222181003 255 255 255 0.01
3679 608.6780331035254 1646.1849727722401 -0.16698146817235182 255 255 255 0.01
3680 609.7355442205115 1646.087451750271 -0.20426892007048636 255 255 255 0.01
3681 611.0214807441171 1645.92493514845 -0.24136085420891185 255 255 255 0.01
3682 612.8764794224675 1645.6891530246369 -0.31629085052697503 255 255 255 0.01
3683 615.5906384748835 1645.3446429597225 -0.4365626021303495 255 255 255 0.01
3684 620.6802805285976 1644.7053170842003 -0.7333879664654068 255 255 255 0.01
3685 622.2413832606215 1644.4899623000929 -0.4234934057352655 255 255 255 0.01
3686 635.7089073449715 1642.781591084635 -0.9971958702969079 255 255 255 0.01
3687 636.9016439237377 1642.59966731543 -0.24331978986099534 255 255 255 0.01
3688 633.4841772710554 1642.994929909529 0.7193723153581968 255 255 255 0.01
3689 634.0180454302587 1642.8910528059769 1.4864289785734912 255 255 255 0.01
3690 634.036915022597 1642.8586688189105 2.2658572629631157 255 255 255 0.01
3691 632.494446829982 1642.9891690945942 3.7404661043819027 255 255 255 0.01
3692 632.8733585401601 1642.8406394702772 6.049519822093838 255 255 255 0.01
3693 605.7558280261323 1646.5396651871858 -0.08779784616531194 255 255 255 0.01
3694 606.1239159158504 1646.48909274085 -0.08395009226481642 255 255 255 0.01
3695 606.630143745087 1646.4195085511974 -0.10816469845440446 255 255 255 0.01
3696 607.1936814811074 1646.342753126901 -0.12443975695816634 255 255 255 0.01
3697 607.8712078681858 1646.2492188041285 -0.14689087898314135 255 255 255 0.01
3698 608.6645584678301 1646.1393776001362 -0.16647668274870941 255 255 255 0.01
3699 609.719453066991 1646.0359595727073 -0.2037096507262044 255 255 255 0.01
3700 610.9927614847415 1645.8675147473998 -0.23891609409246506 255 255 255 0.01
3701 612.8462005431157 1645.6211254681602 -0.3146792461748462 255 255 255 0.01
3702 615.5366815822821 1645.263706854222 -0.43265346589990816 255 255 255 0.01
3703 620.6183739759933 1644.5956425313113 -0.730886908306764 255 255 255 0.01
3704 622.2471894438316 1644.3625237897606 -0.4295868932129574 255 255 255 0.01
3705 635.5741470386445 1642.5936531456325 -0.9946174838973412 255 255 255 0.01
3706 624.210846105738 1644.0608948923507 0.47579928445675135 255 255 255 0.01
3707 624.1906205105927 1644.0383822105298 1.0273889001087533 255 255 255 0.01
3708 624.2033132043557 1644.0114223443961 1.5811204017332683 255 255 255 0.01
3709 624.2234831339495 1643.9876903276818 2.13142005519072 255 255 255 0.01
3710 624.2344709534872 1643.961049984132 2.6826869330076466 255 255 255 0.01
3711 633.6178876849854 1642.649650423546 3.803954083952094 255 255 255 0.01
3712 633.7939600532927 1642.560315804007 5.375768349612249 255 255 255 0.01
3713 631.5844293235402 1642.8341053195415 5.877793514580206 255 255 255 0.01
3714 605.7447026998716 1646.5108339198885 -0.08588354490191619 255 255 255 0.01
3715 606.1124053276743 1646.458128640334 -0.0822741566991374 255 255 255 0.01
3716 606.6105585188317 1646.3866643049014 -0.10428988364596292 255 255 255 0.01
3717 607.1830894526366 1646.3054328212268 -0.12387485690676248 255 255 255 0.01
3718 607.8543620569762 1646.2087811133727 -0.14499832208682828 255 255 255 0.01
3719 608.6449879832093 1646.0946309276528 -0.16450935567816227 255 255 255 0.01
3720 609.6954374623278 1645.9856375857016 -0.20138683061498597 255 255 255 0.01
3721 610.9656305385201 1645.8101404359008 -0.2368343180984751 255 255 255 0.01
3722 612.8155565136243 1645.5533461122996 -0.313036706665228 255 255 255 0.01
3723 615.4882169998273 1645.1825984577986 -0.42959639381668246 255 255 255 0.01
3724 620.5519591826783 1644.4871694605195 -0.7278252301983925 255 255 255 0.01
3725 624.026401114398 1643.994057560551 -0.6215712035525218 255 255 255 0.01
3726 624.1858930563154 1643.9470911481908 -0.08014128022009714 255 255 255 0.01
3727 635.6714975561503 1642.3440608429187 -0.18848908865122382 255 255 255 0.01
3728 633.4660730750721 1642.612936116344 0.7067729712401691 255 255 255 0.01
3729 633.4305167202825 1642.5828158855588 1.4803541364394153 255 255 255 0.01
3730 633.7563884625079 1642.5079189937853 2.2512022349006404 255 255 255 0.01
3731 634.1146316113211 1642.4219883865062 3.039011364803094 255 255 255 0.01
3732 633.1929720088665 1642.517928082278 3.7742538822914558 255 255 255 0.01
3733 631.8233407273284 1642.6860351869443 4.425216832509924 255 255 255 0.01
3734 631.864732403953 1642.6467944689746 5.165822894054632 255 255 255 0.01
3735 631.5503746199083 1642.6591126088804 5.871171098262214 255 255 255 0.01
3736 605.744551665041 1646.4806214069176 -0.08817759044762363 255 255 255 0.01
3737 606.1044311620261 1646.4268275876518 -0.08190447595177774 255 255 255 0.01
3738 606.6078010703048 1646.3517146747076 -0.10594170778813705 255 255 255 0.01
3739 607.1703031252322 1646.268437498276 -0.1227241419570495 255 255 255 0.01
3740 607.8467829468384 1646.1671608783522 -0.1457211714805804 255 255 255 0.01
3741 608.6251757392771 1646.050130324156 -0.1625220115209769 255 255 255 0.01
3742 609.6787382702242 1645.934455929733 -0.20078469694870105 255 255 255 0.01
3743 610.9381357292118 1645.7530748587515 -0.23472603205338283 255 255 255 0.01
3744 612.7825997024571 1645.4861970571403 -0.31101858447459874 255 255 255 0.01
3745 615.4391459742618 1645.101984421123 -0.4264977075608001 255 255 255 0.01
3746 620.4810397963519 1644.3798964018438 -0.72420162280158 255 255 255 0.01
3747 632.3433903720392 1642.6442430553354 -0.7487202916227864 255 255 255 0.01
3748 635.7223078993175 1642.1309451251088 -0.19911840809581305 255 255 255 0.01
3749 633.4949812527165 1642.381174108598 1.4737305995267322 255 255 255 0.01
3750 634.2914220251562 1642.2355530239447 2.2526973909201247 255 255 255 0.01
3751 634.194299129267 1642.2144118243461 3.03713024671218 255 255 255 0.01
3752 632.5997410478615 1642.4159894120373 3.734690017882624 255 255 255 0.01
3753 631.9459224232004 1642.4857004903645 4.432226491925712 255 255 255 0.01
3754 631.2867008474676 1642.5518589120604 5.10123651423858 255 255 255 0.01
3755 631.2918887435007 1642.5183165117617 5.835283553305707 255 255 255 0.01
3756 605.7108720072658 1646.4551074589408 -0.07779444680893244 255 255 255 0.01
3757 606.1186378026661 1646.3914191896079 -0.0894741069207663 255 255 255 0.01
3758 606.5935824077297 1646.3183336681232 -0.10388503286265927 255 255 255 0.01
3759 607.1515341699319 1646.2313131667474 -0.11987703853201648 255 255 255 0.01
3760 607.8254163063136 1646.1262759509548 -0.14277750870572525 255 255 255 0.01
3761 608.6144950334975 1646.0029838346513 -0.1629662045052449 255 255 255 0.01
3762 609.6502145762493 1645.8851515973688 -0.19754318067107146 255 255 255 0.01
3763 610.913918187738 1645.6939041041053 -0.23342672353217608 255 255 255 0.01
3764 612.7473281467733 1645.4196189840902 -0.3086239584367454 255 255 255 0.01
3765 615.4073906650937 1645.0193217702517 -0.426051357768539 255 255 255 0.01
3766 620.3992442799644 1644.2713181103627 -0.719356689138305 255 255 255 0.01
3767 625.2987540862266 1643.5308677724042 -0.767682438795843 255 255 255 0.01
3768 632.2161361788453 1642.4764409433049 -0.7459626689709022 255 255 255 0.01
3769 647.0641374088602 1640.2204146427734 -0.8644643868338728 255 255 255 0.01
3770 646.6863335206812 1640.2366726424295 0.23806504854962407 255 255 255 0.01
3771 633.4178990289362 1642.1999796468908 1.4686573952764694 255 255 255 0.01
3772 646.691055748041 1640.1389495593269 2.4039377991568873 255 255 255 0.01
3773 634.1176193004065 1642.0236304476168 3.0295370581330245 255 255 255 0.01
3774 632.4187301070867 1642.256913896464 3.7200549898608175 255 255 255 0.01
3775 631.7018755122442 1642.335068905357 4.408683132314371 255 255 255 0.01
3776 631.2206716390128 1642.3777654499927 5.0916851381209876 255 255 255 0.01
3777 631.4736134997014 1642.3108537159353 5.857341545278953 255 255 255 0.01
3778 605.7158417044146 1646.4241772428709 -0.0821780531512446 255 255 255 0.01
3779 606.1215135791575 1646.3584327235308 -0.09304757787573781 255 255 255 0.01
3780 606.5886310567007 1646.2837701187152 -0.10489651140662226 255 255 255 0.01
3781 607.1422855066633 1646.1940420453884 -0.11983821370427972 255 255 255 0.01
3782 607.800417459752 1646.0887197086493 -0.13868564942481587 255 255 255 0.01
3783 608.5964045659483 1645.959932875535 -0.16138148326661494 255 255 255 0.01
3784 609.6326509698391 1645.8328180651692 -0.1969438855705814 255 255 255 0.01
3785 610.887767153882 1645.6370097614636 -0.23165648028953623 255 255 255 0.01
3786 612.7132585849854 1645.3510159248685 -0.30660476049334484 255 255 255 0.01
3787 615.3669583724666 1644.935516352883 -0.4244469052275752 255 255 255 0.01
3788 620.3291905038573 1644.165318701016 -0.7158694352852715 255 255 255 0.01
3789 625.2666794165041 1643.3857662275088 -0.7709631169300692 255 255 255 0.01
3790 632.5194597311157 1642.2432805579654 -0.7783832090919423 255 255 255 0.01
3791 646.58526466553 1640.0211858584228 -0.8468540727479095 255 255 255 0.01
3792 646.5417933773102 1639.9799119780398 0.23359253800585433 255 255 255 0.01
3793 632.2906401384447 1642.1847833621666 1.4751988026717557 255 255 255 0.01
3794 632.6188596387605 1642.0996726369458 2.220971272962781 255 255 255 0.01
3795 633.3981552287339 1641.9477355677611 2.999207732214248 255 255 255 0.01
3796 634.9693552692606 1641.66125208128 3.8687011200258574 255 255 255 0.01
3797 631.0724616271881 1642.2548194728265 4.3532923513452655 255 255 255 0.01
3798 631.3024807946215 1642.190983427898 5.098281306276333 255 255 255 0.01
3799 632.1531360800059 1642.019602768972 5.944822806194087 255 255 255 0.01
3800 605.7115462969455 1646.3946740025483 -0.08303269168021421 255 255 255 0.01
3801 606.111222703453 1646.3273965653702 -0.09198709221037538 255 255 255 0.01
3802 606.5571040798352 1646.2532922789055 -0.0972600016196401 255 255 255 0.01
3803 607.1384012366201 1646.1559896179467 -0.12150236126766378 255 255 255 0.01
3804 607.7900262570257 1646.0465756870422 -0.13886825245739076 255 255 255 0.01
3805 608.5832868337691 1645.913296643588 -0.16130730231079693 255 255 255 0.01
3806 609.6058522044336 1645.7852682930193 -0.1940461166164078 255 255 255 0.01
3807 610.8535742589971 1645.5816523216256 -0.2282939406714828 255 255 255 0.01
3808 612.6833752349154 1645.2863421786008 -0.30512126564204767 255 255 255 0.01
3809 615.324870830309 1644.8576465194033 -0.42235336211233054 255 255 255 0.01
3810 620.2526818020839 1644.0609041355935 -0.7115641156090575 255 255 255 0.01
3811 625.2038436666284 1643.254554186797 -0.7706130819615749 255 255 255 0.01
3812 632.9824351095206 1641.9805362870316 -0.8240890124162643 255 255 255 0.01
3813 646.4387305223481 1639.7734777885576 -0.8484623413060457 255 255 255 0.01
3814 646.3965612788307 1639.7408573524792 0.2297811870864912 255 255 255 0.01
3815 632.0012838005179 1642.0455484169056 1.4728204596058687 255 255 255 0.01
3816 631.9423560376918 1642.0227187981532 2.2076561512919812 255 255 255 0.01
3817 633.138558788199 1641.7922396311542 2.985385426075088 255 255 255 0.01
3818 631.863556403274 1641.976277879294 3.6797367917277204 255 255 255 0.01
3819 631.0230681472542 1642.0845434665318 4.346443034968544 255 255 255 0.01
3820 631.4442726269824 1641.9819293402215 5.111306090731506 255 255 255 0.01
3821 632.9984722189255 1641.6919396416743 6.054169154644343 255 255 255 0.01
3822 605.7234548299352 1646.36160569558 -0.09024590357868867 255 255 255 0.01
3823 606.107994020374 1646.294343351487 -0.09358620083609348 255 255 255 0.01
3824 606.5289833612641 1646.2215020067765 -0.09086699490924333 255 255 255 0.01
3825 607.1171972102179 1646.1196198322634 -0.11803381447310013 255 255 255 0.01
3826 607.7756124426257 1646.0050783368833 -0.13797854077887162 255 255 255 0.01
3827 608.560296800468 1645.8683979265836 -0.1587989741092768 255 255 255 0.01
3828 609.5839029273924 1645.733950999921 -0.19252773837376136 255 255 255 0.01
3829 610.8342376716008 1645.5223156960137 -0.2280904603556544 255 255 255 0.01
3830 612.6448009305582 1645.219000780452 -0.30234616103345546 255 255 255 0.01
3831 615.3010221364062 1644.7717994278923 -0.42337364782890674 255 255 255 0.01
3832 620.0399928356815 1643.9761543042184 -0.6897485212428149 255 255 255 0.01
3833 625.1466619889353 1643.1140750726502 -0.7712839197298198 255 255 255 0.01
3834 633.4641963912907 1641.7029739221655 -0.8718401832785685 255 255 255 0.01
3835 646.2934758584773 1639.5185551583559 -0.8504069350255108 255 255 255 0.01
3836 646.2453388023392 1639.4875758223343 0.22569964339830673 255 255 255 0.01
3837 632.4399438257532 1641.7804620334437 1.4621501467693923 255 255 255 0.01
3838 632.2154928583351 1641.78592465008 2.2060301005167116 255 255 255 0.01
3839 632.078562431415 1641.7768615010498 2.9431379412183487 255 255 255 0.01
3840 632.3131874585694 1641.7094446605834 3.703010411559589 255 255 255 0.01
3841 631.4607980229866 1641.8245939280873 4.380179731949656 255 255 255 0.01
3842 631.6061579932124 1641.7673212882557 5.126640585436365 255 255 255 0.01
3843 632.9687959474085 1641.501525658195 6.048972004452464 255 255 255 0.01
3844 605.7168416487386 1646.332306611942 -0.09037797711576889 255 255 255 0.01
3845 606.0732125726163 1646.2684730303172 -0.0838749687735365 255 255 255 0.01
3846 606.5402450241647 1646.1844112983138 -0.09739283352061157 255 255 255 0.01
3847 607.1150302935214 1646.0824673339976 -0.12021134022062085 255 255 255 0.01
3848 607.7575655547911 1645.9668489714522 -0.13594423856163895 255 255 255 0.01
3849 608.5357496334051 1645.826809245857 -0.15570704605808117 255 255 255 0.01
3850 609.5619695066166 1645.68440377071 -0.19094169310812248 255 255 255 0.01
3851 610.8114007594893 1645.4673440710517 -0.2269761879742087 255 255 255 0.01
3852 612.6041769157971 1645.1544848967603 -0.2991311099043905 255 255 255 0.01
3853 615.2537953194102 1644.6926945664047 -0.420679749529429 255 255 255 0.01
3854 625.0640498751853 1642.9827363715399 -0.7690596980499382 255 255 255 0.01
3855 633.9860573335155 1641.4181504293824 -0.9229367197021388 255 255 255 0.01
3856 635.7957779482539 1641.0760381274094 -0.2424484712409254 255 255 255 0.01
3857 646.107973833683 1639.2414338995802 0.22148804251194676 255 255 255 0.01
3858 632.583281077484 1641.5401566951612 2.205816868261424 255 255 255 0.01
3859 633.0897587616946 1641.4176042731754 2.9752325642109048 255 255 255 0.01
3860 634.231943097283 1641.1804749243533 3.813668616038542 255 255 255 0.01
3861 631.3333084537279 1641.6713212084044 4.3671773645769 255 255 255 0.01
3862 631.1832339741953 1641.6668332657073 5.079724510483998 255 255 255 0.01
3863 632.9779269344453 1641.3098459142973 6.049111382266753 255 255 255 0.01
3864 605.7101072938772 1646.303069379068 -0.09049957454780166 255 255 255 0.01
3865 606.0826611629426 1646.2333516842154 -0.09008030457991323 255 255 255 0.01
3866 606.5457774009811 1646.1482268185136 -0.10205932037180765 255 255 255 0.01
3867 607.0895622594343 1646.0470519586815 -0.11556294011350587 255 255 255 0.01
3868 607.7388873005026 1645.9263058810388 -0.13396269122770255 255 255 255 0.01
3869 608.5238542231502 1645.78034501379 -0.15605880624892832 255 255 255 0.01
3870 609.5436946934855 1645.6343958345167 -0.19020979370911428 255 255 255 0.01
3871 610.7759783091868 1645.4110826597032 -0.22358317404506067 255 255 255 0.01
3872 612.5709905784643 1645.0890477033608 -0.29726951752587416 255 255 255 0.01
3873 615.2062077934991 1644.6140813110205 -0.4179467320924948 255 255 255 0.01
3874 620.0348616611151 1643.7463332761833 -0.7004363493102161 255 255 255 0.01
3875 625.0178863916884 1642.8456366403173 -0.7707373873858474 255 255 255 0.01
3876 634.5154145637102 1641.1254464895126 -0.9749619588632275 255 255 255 0.01
3877 635.5015722879675 1640.9137141834074 -0.23311850401237466 255 255 255 0.01
3878 645.9712285419516 1638.9962003461424 0.2173254036181107 255 255 255 0.01
3879 631.888592017978 1641.5038821778658 1.4575258458780656 255 255 255 0.01
3880 631.8848877473423 1641.4726783899578 2.192610171075022 255 255 255 0.01
3881 633.3467089834264 1641.1727170753506 2.9801654843918053 255 255 255 0.01
3882 634.1486185098471 1640.9972608418407 3.805354081412004 255 255 255 0.01
3883 632.991204697851 1641.144420603018 5.271244758336941 255 255 255 0.01
3884 633.3115886884797 1641.05687991923 6.0919379391950255 255 255 255 0.01
3885 605.7066552656213 1646.2723376114316 -0.09204656296277536 255 255 255 0.01
3886 606.0548213382885 1646.2056484502114 -0.0830107679188179 255 255 255 0.01
3887 606.5395980514829 1646.1128809679763 -0.10303763266373767 255 255 255 0.01
3888 607.0829978333845 1646.0096343016455 -0.11659893983637959 255 255 255 0.01
3889 607.7297289246778 1645.8854934558397 -0.1345730151458573 255 255 255 0.01
3890 608.5061219586473 1645.7363752162776 -0.15490220290932277 255 255 255 0.01
3891 609.5151671435075 1645.5846643521736 -0.18730858678613638 255 255 255 0.01
3892 610.7578813773913 1645.3538100693847 -0.2236479428273812 255 255 255 0.01
3893 612.5274282008788 1645.0235818839421 -0.29370048291010464 255 255 255 0.01
3894 615.1654237807411 1644.5319274477217 -0.41644962180850387 255 255 255 0.01
3895 619.8723348986432 1643.660336179637 -0.6849235207570294 255 255 255 0.01
3896 624.9662015099623 1642.705412065029 -0.7720600198068088 255 255 255 0.01
3897 636.7409869873032 1640.5065959832918 -1.168334927545986 255 255 255 0.01
3898 645.8735957912631 1638.7826367743178 -0.8559761181830212 255 255 255 0.01
3899 645.8158950891996 1638.7473511673495 0.2136231722683204 255 255 255 0.01
3900 631.6700603794994 1641.3536304803292 1.4545740356789805 255 255 255 0.01
3901 631.8952792658863 1641.285321046162 2.188130292586161 255 255 255 0.01
3902 633.626592256669 1640.925851869708 2.986061293917327 255 255 255 0.01
3903 633.6808814329164 1640.881918059666 3.7743207610493306 255 255 255 0.01
3904 632.4555240150969 1641.0885789549245 4.455641007886797 255 255 255 0.01
3905 632.3537166326591 1641.0757807491218 5.201669071515221 255 255 255 0.01
3906 632.9860083631646 1640.92108496823 6.048619290670546 255 255 255 0.01
3907 605.6943236743546 1646.2451042187417 -0.090004904563171 255 255 255 0.01
3908 606.0658621255756 1646.1711232557197 -0.08983380882421255 255 255 255 0.01
3909 606.5429436867547 1646.0778760139394 -0.10703898023632452 255 255 255 0.01
3910 607.0403597305087 1645.9788908081307 -0.10671940791991608 255 255 255 0.01
3911 607.7204599447591 1645.8459638730037 -0.13513453732872693 255 255 255 0.01
3912 608.4846255252962 1645.6946367771607 -0.15272081231240997 255 255 255 0.01
3913 609.4943355261255 1645.5354120180489 -0.18609460013183865 255 255 255 0.01
3914 610.7299138050242 1645.2984577047537 -0.22172397415684308 255 255 255 0.01
3915 612.4837661759308 1644.9606199162013 -0.290039084627542 255 255 255 0.01
3916 615.128567078465 1644.4519961055369 -0.4154475134399771 255 255 255 0.01
3917 619.8165780290243 1643.555917276649 -0.6833862315709949 255 255 255 0.01
3918 624.9028596158377 1642.5721291101102 -0.7719494737458712 255 255 255 0.01
3919 635.5496933918355 1640.5243919030427 -1.0778891547056797 255 255 255 0.01
3920 645.7106622345816 1638.5438661543421 -0.8563877159311599 255 255 255 0.01
3921 645.6725910434337 1638.5056562448306 0.20984282396764042 255 255 255 0.01
3922 632.3522135674077 1641.0426993707758 1.4412054192011556 255 255 255 0.01
3923 631.8575312248735 1641.1068218424195 2.1831525078326464 255 255 255 0.01
3924 632.9052930025326 1640.8765864154009 2.95683166831233 255 255 255 0.01
3925 634.1477127657688 1640.6002185795746 3.7989289093169534 255 255 255 0.01
3926 633.0116869918771 1640.7903242037464 4.49959601491813 255 255 255 0.01
3927 631.9047354338261 1640.9825464933178 5.152487931687002 255 255 255 0.01
3928 632.4753388846641 1640.8371368857524 5.9813124052834326 255 255 255 0.01
3929 605.6907584699334 1646.2153501653513 -0.09150693833368195 255 255 255 0.01
3930 606.0749508061887 1646.136737808091 -0.09598863335122498 255 255 255 0.01
3931 606.5234899848747 1646.046068372082 -0.10363554327324764 255 255 255 0.01
3932 607.0296536271121 1645.942426063173 -0.10657576303088767 255 255 255 0.01
3933 607.7069031603297 1645.8047639755719 -0.1346902971247801 255 255 255 0.01
3934 608.4662738566888 1645.6496960486697 -0.15156410736983217 255 255 255 0.01
3935 609.4793686038427 1645.4867783872064 -0.1861341826378613 255 255 255 0.01
3936 610.7074321908952 1645.2423236289792 -0.22095507025420913 255 255 255 0.01
3937 612.459625244489 1644.8964434420827 -0.28976458924718873 255 255 255 0.01
3938 615.0762592178588 1644.3779420935045 -0.4119259172923688 255 255 255 0.01
3939 619.7291411180163 1643.4580716673581 -0.677704527267168 255 255 255 0.01
3940 624.9020752686067 1642.4314445582838 -0.7783795151294624 255 255 255 0.01
3941 636.5531443443283 1640.1183856083658 -1.170424742666495 255 255 255 0.01
3942 645.5838124775144 1638.2993981457787 -0.8588980131625248 255 255 255 0.01
3943 645.5237648732216 1638.2743261571034 0.20660594086179396 255 255 255 0.01
3944 632.7109539464313 1640.7820596531992 1.4314307722962947 255 255 255 0.01
3945 632.5501783505522 1640.782123718748 2.186601240871483 255 255 255 0.01
3946 633.5088728934038 1640.5572118993732 2.974151567275617 255 255 255 0.01
3947 633.8361648215738 1640.4638697355026 3.7775491475405687 255 255 255 0.01
3948 632.4772172822683 1640.7065304679422 4.453319846463369 255 255 255 0.01
3949 631.8998421640081 1640.7923974230098 5.150826164825944 255 255 255 0.01
3950 632.5329761274426 1640.6365960215167 5.988602020644659 255 255 255 0.01
3951 605.686819068863 1646.1846836082348 -0.09302319796873704 255 255 255 0.01
3952 606.0669778413505 1646.1054974704646 -0.09617032810752679 255 255 255 0.01
3953 606.4887968619206 1646.016412726485 -0.09529108942796993 255 255 255 0.01
3954 607.0224821603905 1645.9053801155706 -0.1075671926454671 255 255 255 0.01
3955 607.691286868697 1645.7652916188877 -0.13366630146712333 255 255 255 0.01
3956 608.4515910016056 1645.6054542887064 -0.15132100392960113 255 255 255 0.01
3957 609.4499939355069 1645.437847881833 -0.18316357457069365 255 255 255 0.01
3958 610.6806865876674 1645.1870821415225 -0.21937468691182094 255 255 255 0.01
3959 612.4208236599512 1644.8309959673397 -0.28713983800459175 255 255 255 0.01
3960 615.0224458503875 1644.2993852117013 -0.40850148609887516 255 255 255 0.01
3961 619.6451239467589 1643.360316372477 -0.6724768602169311 255 255 255 0.01
3962 624.9241164795205 1642.2770029732023 -0.7877315311352957 255 255 255 0.01
3963 636.3464276195538 1639.9383643160093 -1.162428918614065 255 255 255 0.01
3964 645.4340617073983 1638.0605092268552 -0.8600037221861241 255 255 255 0.01
3965 645.3900310948633 1638.024731954333 0.2023543574211606 255 255 255 0.01
3966 632.8120119961343 1640.5637283610847 1.4246019761215354 255 255 255 0.01
3967 645.3857537634659 1637.944304281532 2.327045690636708 255 255 255 0.01
3968 634.1461888257718 1640.2289863296676 2.992724362575967 255 255 255 0.01
3969 633.6033048585327 1640.3084988292428 3.760890553417706 255 255 255 0.01
3970 632.052216572627 1640.6058160843372 4.416303715342975 255 255 255 0.01
3971 632.1966808643579 1640.5440972646632 5.1815533659302435 255 255 255 0.01
3972 633.5741865624689 1640.2215239486452 6.124858440983039 255 255 255 0.01
3973 605.6774047402782 1646.156081087793 -0.09238514472304504 255 255 255 0.01
3974 606.0590049458663 1646.0743183462816 -0.09634071182603021 255 255 255 0.01
3975 606.4857965867122 1645.9816483420154 -0.09742735034843575 255 255 255 0.01
3976 607.0376091630465 1645.8637374640673 -0.11544246573645323 255 255 255 0.01
3977 607.6793262604481 1645.725114944279 -0.13368616663291588 255 255 255 0.01
3978 608.4272835289487 1645.5633753796728 -0.14863441230842422 255 255 255 0.01
3979 609.4246575570254 1645.3899180250942 -0.18100666921270392 255 255 255 0.01
3980 610.6556491656345 1645.131764372159 -0.21816369559776838 255 255 255 0.01
3981 612.3975196213767 1644.7648585499487 -0.2872135801114064 255 255 255 0.01
3982 614.9824291811553 1644.2210698630163 -0.40708538798479843 255 255 255 0.01
3983 619.566474959865 1643.262207768198 -0.667961416691516 255 255 255 0.01
3984 624.8721109349602 1642.141724918155 -0.7889382207654032 255 255 255 0.01
3985 636.2513988086126 1639.7435373382357 -1.1634845264439555 255 255 255 0.01
3986 645.2967501382271 1637.8201641345706 -0.861814122105649 255 255 255 0.01
3987 645.1861993692156 1637.7990889060434 0.200996146274512 255 255 255 0.01
3988 632.8559617575371 1640.3616013760698 1.4186587226564735 255 255 255 0.01
3989 632.319133580823 1640.4494822733288 2.175077434956936 255 255 255 0.01
3990 633.5512611638629 1640.1553840559502 2.96825875474999 255 255 255 0.01
3991 633.341521953134 1640.1675497044134 3.742788566181154 255 255 255 0.01
3992 632.4145772336367 1640.3403824924226 4.444585678757365 255 255 255 0.01
3993 632.0425634505784 1640.3891736677695 5.164337584464041 255 255 255 0.01
3994 633.6824336537296 1640.0018481240068 6.139176128214251 255 255 255 0.01
3995 605.6677464578543 1646.1275420234617 -0.09173590155347511 255 255 255 0.01
3996 606.0523633478296 1646.0418453603552 -0.0971878605214258 255 255 255 0.01
3997 606.4807251491574 1645.9473301408045 -0.09893307064698065 255 255 255 0.01
3998 607.0334712737825 1645.8246497871219 -0.11759088307420407 255 255 255 0.01
3999 607.674422142212 1645.6823110035252 -0.1358446038773038 255 255 255 0.01
4000 608.4118589571266 1645.5181025588818 -0.14839038428421225 255 255 255 0.01
4001 609.4104102502371 1645.3398740043808 -0.18146634062060674 255 255 255 0.01
4002 610.6299866401465 1645.074865290316 -0.21697460654818457 255 255 255 0.01
4003 612.3583768406407 1644.702160848087 -0.2844724031668959 255 255 255 0.01
4004 614.9323019595518 1644.145165276988 -0.40411982428633664 255 255 255 0.01
4005 619.4943804051422 1643.159950248511 -0.6645048022603097 255 255 255 0.01
4006 624.9593691323565 1641.9770501303894 -0.8052637793500628 255 255 255 0.01
4007 636.0051747366889 1639.5817566670373 -1.1518075998342834 255 255 255 0.01
4008 645.1428071656622 1637.5762449675312 -0.8628872439024633 255 255 255 0.01
4009 645.1100687128852 1637.5475087189318 0.19504703369122445 255 255 255 0.01
4010 645.1045487753729 1637.5046703936875 1.2573783902366702 255 255 255 0.01
4011 645.0708899608495 1637.4682488520846 2.3110255369409716 255 255 255 0.01
4012 645.0894960463716 1637.4203702511866 3.365852891780659 255 255 255 0.01
4013 633.3014968702249 1639.9804653464253 3.7378834117498787 255 255 255 0.01
4014 631.7477308597028 1640.2920283346089 4.387880673686297 255 255 255 0.01
4015 645.0330567311955 1637.309242983225 6.548966311255403 255 255 255 0.01
4016 633.4406487019714 1639.8584586966188 6.107882107671014 255 255 255 0.01
4017 605.6672272329074 1646.0970886332534 -0.09461265833670174 255 255 255 0.01
4018 606.0457311849461 1646.0104098472748 -0.09799902925822757 255 255 255 0.01
4019 606.4977060082156 1645.908173130187 -0.10786658751170597 255 255 255 0.01
4020 607.0125309464393 1645.7904139423397 -0.11452036509033037 255 255 255 0.01
4021 607.626410846669 1645.6513720792486 -0.12571937914784415 255 255 255 0.01
4022 608.3949985771308 1645.4760781064892 -0.14757251703887597 255 255 255 0.01
4023 609.380309531237 1645.2916213902208 -0.1784257802856608 255 255 255 0.01
4024 610.598494161551 1645.021192787497 -0.21453027697611482 255 255 255 0.01
4025 612.3204362952288 1644.6374379905376 -0.28210201452299266 255 255 255 0.01
4026 614.8715556566501 1644.0694176179613 -0.3996643814672822 255 255 255 0.01
4027 619.4243935720037 1643.0612751304902 -0.6611645839319338 255 255 255 0.01
4028 625.0523010754863 1641.8051201497628 -0.8225309211998 255 255 255 0.01
4029 635.9314894973003 1639.3843536808492 -1.1546407405770558 255 255 255 0.01
4030 645.0185488961444 1637.33511075029 -0.8654083204352361 255 255 255 0.01
4031 644.9645459910062 1637.3035753109693 0.1914384330104506 255 255 255 0.01
4032 644.9606876176636 1637.2688999331408 1.2518806801296725 255 255 255 0.01
4033 644.9388518924371 1637.2304194813303 2.303585802214351 255 255 255 0.01
4034 644.9396222415744 1637.1949106832158 3.3561372722790126 255 255 255 0.01
4035 633.4494515231127 1639.750907677701 3.7441313341153832 255 255 255 0.01
4036 631.9419408442859 1640.061258859259 4.40255099647508 255 255 255 0.01
4037 644.891604126783 1637.0834008181153 6.533302390160034 255 255 255 0.01
4038 634.7086372087938 1639.3716934831234 6.274483112832181 255 255 255 0.01
4039 605.6573263131071 1646.0686736996477 -0.09394219328391218 255 255 255 0.01
4040 606.0316672270559 1645.9806286702033 -0.09614295149235774 255 255 255 0.01
4041 606.4866631716383 1645.8750075556861 -0.10749278909041848 255 255 255 0.01
4042 606.9802616222928 1645.7588443358018 -0.10797951663262229 255 255 255 0.01
4043 607.6191932851049 1645.609199202328 -0.12731308206546155 255 255 255 0.01
4044 608.392367048362 1645.4280652524658 -0.15069541537705944 255 255 255 0.01
4045 609.367783399769 1645.2429658064568 -0.17924632196713164 255 255 255 0.01
4046 610.5706596019883 1644.9669988523187 -0.21285029956173807 255 255 255 0.01
4047 612.2868004425748 1644.5762161447883 -0.2802928450668185 255 255 255 0.01
4048 614.8327901766588 1643.994386494235 -0.3983755592921243 255 255 255 0.01
4049 619.3363805417799 1642.9672189659893 -0.6554558822850498 255 255 255 0.01
4050 625.1556561815623 1641.6383453683527 -0.8406216353989611 255 255 255 0.01
4051 635.8723011690421 1639.184014869674 -1.1587120434610418 255 255 255 0.01
4052 644.8676208274072 1637.1008708326465 -0.8662793151860693 255 255 255 0.01
4053 644.8212492996961 1637.0764078690718 0.18834506581036692 255 255 255 0.01
4054 644.8175653941156 1637.03397962569 1.2464730519150526 255 255 255 0.01
4055 644.8035299723847 1636.9942691057033 2.296236853725768 255 255 255 0.01
4056 644.7987531705002 1636.952337438958 3.3466126507736886 255 255 255 0.01
4057 633.0511467345418 1639.6458623385038 3.71846273539866 255 255 255 0.01
4058 633.1188326032284 1639.5985101544293 4.498490742481385 255 255 255 0.01
4059 644.7491620632485 1636.8426751295856 6.517771144169763 255 255 255 0.01
4060 634.5854609458042 1639.196103466749 6.2591527897975014 255 255 255 0.01
4061 605.6488791413667 1646.0390247422297 -0.09399054428083531 255 255 255 0.01
4062 606.0266191073299 1645.94887371653 -0.09759541587405396 255 255 255 0.01
4063 606.473296242587 1645.8413137447556 -0.106511367480707 255 255 255 0.01
4064 606.9701670287119 1645.722496052547 -0.1083288133708995 255 255 255 0.01
4065 607.610038134496 1645.568753027595 -0.12833041782898102 255 255 255 0.01
4066 608.3670892219922 1645.3866661754632 -0.1479330165685453 255 255 255 0.01
4067 609.3429253071562 1645.1939330876212 -0.17748260682211514 255 255 255 0.01
4068 610.5463588941348 1644.9121628599873 -0.21193620911687727 255 255 255 0.01
4069 612.2539808867147 1644.5108367134485 -0.27890870723028005 255 255 255 0.01
4070 614.7732701413901 1643.9192382056349 -0.3941422762142226 255 255 255 0.01
4071 619.2616538805382 1642.8708448104649 -0.6514939844763994 255 255 255 0.01
4072 625.2773078694867 1641.4566960281552 -0.8612492078315017 255 255 255 0.01
4073 635.730950497963 1638.9965041045364 -1.1560939379122317 255 255 255 0.01
4074 644.7310761728942 1636.8643646291168 -0.8679829457667974 255 255 255 0.01
4075 644.698528152294 1636.82927622571 0.18403076375040794 255 255 255 0.01
4076 644.7103169942235 1636.783596250089 1.240471669219497 255 255 255 0.01
4077 644.6533573043573 1636.7625233905985 2.288854987809911 255 255 255 0.01
4078 644.697307498596 1636.7095330965692 3.3387412049954843 255 255 255 0.01
4079 632.7038671506955 1639.527110595154 3.695894627681904 255 255 255 0.01
4080 632.593031748205 1639.528494045792 4.453959711266631 255 255 255 0.01
4081 644.6170331622396 1636.6085705344028 6.503580673585955 255 255 255 0.01
4082 649.0096985512615 1635.5059016426824 8.149815739992123 255 255 255 0.01
4083 605.6422675811972 1646.0099085998747 -0.09471398502061246 255 255 255 0.01
4084 606.017672695938 1645.9180085292355 -0.09770821282579001 255 255 255 0.01
4085 606.4673705009551 1645.807003092923 -0.10797295619175173 255 255 255 0.01
4086 606.9636047704012 1645.6853224938711 -0.10981684576646344 255 255 255 0.01
4087 607.6176932668435 1645.5243091848517 -0.13411757616316544 255 255 255 0.01
4088 608.3472943672107 1645.3441190673566 -0.14661042053394757 255 255 255 0.01
4089 609.3218587336321 1645.1457820081087 -0.1765399887512027 255 255 255 0.01
4090 610.5084162222728 1644.8606849292737 -0.20822928879018932 255 255 255 0.01
4091 612.2097319360328 1644.4504432007357 -0.2753451066320243 255 255 255 0.01
4092 614.7253502065769 1643.8444737197124 -0.3916283306446049 255 255 255 0.01
4093 619.1592802733206 1642.781679470425 -0.6438680389895852 255 255 255 0.01
4094 625.3928948050651 1641.2790678189206 -0.8811266572755296 255 255 255 0.01
4095 635.7006403356736 1638.7900438419554 -1.1626469430999702 255 255 255 0.01
4096 644.5972207936027 1636.6281993848393 -0.8698131166401595 255 255 255 0.01
4097 651.8266548858351 1634.7948338082429 1.138047900813954 255 255 255 0.01
4098 644.5369349278564 1636.5236985181318 2.2819560135435495 255 255 255 0.01
4099 644.6002556418667 1636.4660756365722 3.3311705611682845 255 255 255 0.01
4100 633.0733796912323 1639.242690994444 3.715486058817634 255 255 255 0.01
4101 632.6831292960727 1639.3131318877824 4.46043163612057 255 255 255 0.01
4102 644.4817483054192 1636.3761403682208 6.489294036873432 255 255 255 0.01
4103 648.8358089626726 1635.2568530796007 8.128815279809007 255 255 255 0.01
4104 605.6373612561795 1645.9803497768803 -0.09613575728234425 255 255 255 0.01
4105 606.0082294067697 1645.8862323740163 -0.09783261831807133 255 255 255 0.01
4106 606.4558414136374 1645.7740248661974 -0.10756020266435273 255 255 255 0.01
4107 606.980662705159 1645.6412209497657 -0.11881306442973671 255 255 255 0.01
4108 607.6058450872596 1645.4830939766869 -0.13460683484408453 255 255 255 0.01
4109 608.3268787473072 1645.3004177326359 -0.14530247142453012 255 255 255 0.01
4110 609.2987233502022 1645.0982595575913 -0.17513599770573562 255 255 255 0.01
4111 610.4869036296342 1644.8036874560605 -0.20810042191686096 255 255 255 0.01
4112 612.1842441289629 1644.3858518616532 -0.2752496873911934 255 255 255 0.01
4113 614.6752411978023 1643.7705218492038 -0.3887733384619527 255 255 255 0.01
4114 619.088555335932 1642.6823389925719 -0.6406521656199282 255 255 255 0.01
4115 625.5303898039145 1641.0942833695362 -0.903543171603701 255 255 255 0.01
4116 644.4581860635799 1636.3860379379012 -0.8716014049855798 255 255 255 0.01
4117 644.5594580164534 1636.3271573776592 0.1721011580082361 255 255 255 0.01
4118 651.5278629661384 1634.5571078915061 1.1338689231971046 255 255 255 0.01
4119 644.3843916883304 1636.2865441473186 2.2746331981013546 255 255 255 0.01
4120 644.437968713615 1636.2313278162258 3.321385471460791 255 255 255 0.01
4121 632.9273925320035 1639.0823838547772 3.7050332633355554 255 255 255 0.01
4122 632.9154189624925 1639.0544900571863 4.478753643974344 255 255 255 0.01
4123 644.3432292072903 1636.1373331030593 6.474932668705052 255 255 255 0.01
4124 648.6894563852841 1635.002062045224 8.111726097880148 255 255 255 0.01
4125 605.6322117436432 1645.9508539999576 -0.09754770842583893 255 255 255 0.01
4126 605.9990400010221 1645.8554913593057 -0.09792190373231202 255 255 255 0.01
4127 606.451377281446 1645.739334779199 -0.10961960914962576 255 255 255 0.01
4128 606.9681309722419 1645.605383184652 -0.11854924798789801 255 255 255 0.01
4129 607.570148229738 1645.4504565739235 -0.1281045106869254 255 255 255 0.01
4130 609.2748430217734 1645.0494013788648 -0.17374753988884617 255 255 255 0.01
4131 610.4578574469238 1644.7505420838113 -0.20632159763757763 255 255 255 0.01
4132 612.1407115747119 1644.3237433217387 -0.2720244449952598 255 255 255 0.01
4133 614.6106179521655 1643.6979831483904 -0.3838087576625102 255 255 255 0.01
4134 619.00836416795 1642.5892498870155 -0.6360120077530054 255 255 255 0.01
4135 625.6847520306446 1640.8984825357393 -0.92818827751065 255 255 255 0.01
4136 635.6440320857267 1638.37543791579 -1.1762167442961098 255 255 255 0.01
4137 644.3120439742884 1636.1547456610297 -0.87260824685888 255 255 255 0.01
4138 644.2498374689757 1636.0538634289887 2.2677932039261393 255 255 255 0.01
